# x y z nx ny nz
0.071964 0.047699 0.067260 0.171118 0.460573 0.870971
0.135353 0.019994 0.034004 0.699278 0.335599 -0.631176
0.083611 0.055463 0.045452 0.485578 0.799265 -0.354104
0.010909 0.011045 0.040104 0.050630 -0.289517 0.955833
0.118875 -0.001445 0.110174 -0.399720 -0.824782 0.399948
0.107760 -0.017339 0.075462 -0.000026 -0.978020 0.208510
0.125277 -0.030020 0.117944 -0.707771 -0.269665 -0.652948
0.049820 0.049173 0.067206 0.008831 0.951711 0.306870
0.075738 -0.027435 0.063993 0.176810 -0.347981 0.920678
0.035994 -0.017258 0.015025 -0.516161 -0.494365 -0.699415
0.033637 -0.020076 0.026669 -0.754596 -0.622151 -0.208599
0.120556 0.035001 0.119082 -0.362348 0.724178 0.586746
0.092086 -0.004059 0.145087 0.258720 0.594705 0.761176
0.059905 0.032481 0.006376 -0.034701 0.061933 -0.997477
0.138530 -0.019685 0.127714 0.977243 0.159459 0.139885
0.138361 -0.023564 0.127683 0.718781 -0.252837 -0.647632
0.090054 -0.020292 0.022706 0.887581 -0.459994 -0.024598
0.111088 0.018994 0.017712 0.985665 -0.168556 -0.007334
0.120864 0.042320 0.040988 0.296556 0.765734 -0.570707
0.040185 0.000511 0.001983 -0.337422 -0.243706 -0.909260
0.124258 -0.011910 0.123785 -0.856196 0.268652 0.441311
0.153170 0.042915 0.086609 0.903943 0.377790 -0.200407
0.111966 0.018636 0.110063 -0.902203 0.312221 0.297571
0.040624 -0.024639 0.020247 -0.376682 -0.768486 -0.517242
0.117687 0.030369 0.120210 -0.305628 0.270063 0.913048
0.046364 0.055399 0.042824 -0.380242 0.905276 -0.189452
0.145729 0.010547 0.119164 0.556303 -0.262831 0.788319
0.133759 0.018804 0.032122 0.725451 0.099351 -0.681065
0.087769 -0.004221 0.130871 -0.249081 0.623262 0.741285
0.122229 -0.007615 0.001021 0.336657 -0.705600 -0.623531
0.095496 0.043909 0.048191 -0.394939 0.915241 -0.079732
0.098353 0.044581 0.047198 -0.067583 0.986851 -0.146824
0.131404 0.010941 0.002337 0.621929 0.366887 -0.691808
0.048557 0.045838 0.003556 -0.291852 0.804087 -0.517944
0.050406 0.046335 0.003331 -0.187150 0.822055 -0.537773
0.136236 -0.019567 0.117125 0.913028 -0.087448 -0.398412
0.084766 -0.002786 0.128984 -0.175250 0.492832 0.852293
0.007793 0.026872 0.035373 -0.095600 0.684626 0.722598
0.093356 0.025435 0.001561 -0.056994 0.053049 -0.996964
0.095925 0.022680 0.001292 0.308408 0.014714 -0.951140
0.035700 0.049517 0.045129 -0.666985 0.709721 -0.226778
0.144149 -0.001566 0.050672 0.825124 -0.385991 -0.412530
0.107631 -0.016383 0.001552 0.763209 -0.354814 -0.540018
0.144883 0.051993 0.096716 0.651282 0.747711 0.129461
0.089074 -0.014304 0.146259 0.620692 -0.681387 0.387883
0.115846 0.004892 0.128000 0.622430 0.165533 0.764970
0.067990 -0.021217 0.072882 -0.022964 -0.975974 0.216676
0.006496 0.023729 0.037944 -0.110130 0.640721 0.759834
0.140544 -0.007966 0.061403 0.738176 -0.673709 0.034826
0.054011 0.022205 0.001776 0.035039 0.058511 -0.997672
0.072203 -0.007503 0.006011 -0.027539 -0.025574 -0.999294
0.148992 0.002925 0.087498 0.851884 -0.520436 -0.058652
0.025519 0.038788 0.028101 -0.778099 0.557680 -0.289060
0.073611 -0.026512 0.150252 0.102455 -0.881874 0.460218
0.052529 0.052575 0.017762 -0.349178 0.795853 -0.494665
0.065299 0.049725 0.003340 -0.229668 0.849153 -0.475596
0.002493 0.020269 0.021515 -0.882605 0.171725 -0.437628
0.050939 0.023779 0.001821 0.081613 -0.012005 -0.996592
0.045451 0.045429 0.006945 -0.335953 0.932008 -0.136001
0.108298 0.020442 0.000960 0.114085 -0.315588 -0.942013
0.060911 -0.032369 0.030033 -0.241556 -0.941961 -0.233152
0.083429 0.054915 0.010244 0.066084 0.972145 0.224872
0.049571 -0.012381 0.001468 -0.062154 -0.002098 -0.998064
0.126155 -0.011060 0.126144 -0.775699 0.346024 0.527787
0.116249 0.018723 0.121494 -0.510349 0.126655 0.850589
0.114947 -0.000052 0.125867 0.662968 -0.704957 0.252010
0.044207 -0.023281 0.060863 -0.311507 -0.788225 0.530721
0.103849 0.001987 0.136749 0.351601 0.473207 0.807745
0.046694 0.054802 0.049402 -0.276162 0.933369 0.229255
0.095105 -0.010672 0.017507 0.417987 -0.372321 0.828652
0.065075 0.049584 0.006055 -0.284572 0.958221 0.028819
0.122925 -0.050510 0.132960 -0.994083 0.087364 -0.064544
0.071061 -0.033071 0.060572 -0.032399 -0.800346 0.598662
0.131225 0.021241 0.030719 0.587964 0.348127 -0.730141
0.104014 -0.020334 0.054236 -0.016875 -0.977102 -0.212103
0.099490 -0.003710 0.141311 0.492273 0.048774 0.869073
0.137432 -0.016321 0.122428 0.855504 -0.121621 -0.503310
0.036977 0.041778 0.017223 -0.510928 0.763717 -0.394574
0.045722 -0.012068 0.001827 -0.228017 -0.071302 -0.971043
0.116225 -0.004827 0.093981 -0.281631 -0.928368 0.242523
0.137620 -0.001598 0.121301 0.900238 0.139250 0.412529
0.098458 -0.013980 0.082527 0.026233 -0.858656 0.511881
0.142778 0.000749 0.075588 0.812669 -0.492565 0.311367
0.094931 -0.011100 0.085082 -0.155496 -0.720210 0.676105
0.137668 -0.007374 0.120562 0.981663 -0.142353 -0.126784
0.089416 0.040288 0.019131 0.326062 0.368344 0.870636
0.069844 -0.021762 0.000923 -0.075941 -0.325170 -0.942602
0.097882 -0.000747 0.140886 0.351995 0.502443 0.789716
0.100219 0.040894 0.018992 0.066537 0.989654 -0.127117
0.121645 0.033536 0.120474 -0.192206 0.346292 0.918226
0.148460 0.004774 0.082986 0.694471 -0.577878 -0.428680
0.117126 0.012549 0.000743 0.008297 0.011835 -0.999896
0.011685 -0.001862 0.018379 -0.594839 -0.630323 -0.498858
0.137703 -0.014075 0.122270 0.854509 -0.150646 -0.497112
0.057465 0.002941 0.002367 0.462925 -0.331747 -0.821976
0.100135 -0.005795 0.092133 -0.198897 -0.580530 0.789572
0.127642 0.015267 0.002095 0.513289 0.465685 -0.720883
0.113672 0.040251 0.075850 -0.039153 0.847816 0.528844
0.099191 0.026589 0.090785 0.072104 0.568538 0.819491
0.117305 0.024165 0.121541 -0.420115 0.098738 0.902083
0.131983 -0.051101 0.139948 0.742361 -0.533471 -0.405351
0.125878 0.041284 0.003112 0.842403 0.404032 -0.356532
0.046150 0.042986 0.002586 -0.132443 0.190424 -0.972727
0.011419 0.022228 0.012024 -0.575469 0.341122 -0.743284
0.138841 -0.003038 0.041416 0.749685 -0.278135 -0.600511
0.129519 -0.043237 0.141633 -0.497424 0.441684 0.746648
0.101918 0.000955 0.115651 -0.384040 -0.232176 -0.893649
0.145258 0.026271 0.076514 0.836098 0.422438 -0.349982
0.092405 0.039706 0.027581 -0.377335 0.911851 -0.161695
0.080983 -0.010500 0.134604 -0.322653 0.721630 0.612491
0.152293 0.018881 0.110123 0.969320 -0.245105 0.018528
0.116691 -0.020140 0.057723 0.291535 -0.956541 -0.006105
0.034275 -0.018983 0.018761 -0.579163 -0.804388 -0.132398
0.104462 -0.017589 0.000800 0.011097 -0.008330 -0.999904
0.147458 0.015607 0.050751 0.998489 0.038009 -0.039675
0.106909 -0.014809 0.000804 0.315683 -0.112156 -0.942213
0.111964 0.047553 0.003219 -0.093525 0.831252 -0.547972
0.086839 0.055507 0.006271 0.268633 0.962864 0.027007
0.145150 -0.000865 0.053345 0.873716 -0.443274 -0.200322
0.144535 0.011998 0.044129 0.855333 -0.028097 -0.517316
0.086804 0.022759 0.005073 -0.040769 0.042127 -0.998280
0.047282 -0.019773 0.004082 -0.493390 -0.787017 -0.370365
0.093065 -0.027937 0.048202 0.916463 -0.400069 0.006305
0.000815 0.020146 0.030830 -0.965723 0.249659 -0.071066
0.059383 0.019159 0.002484 0.542099 0.314647 -0.779183
0.149201 0.027501 0.116993 0.802783 0.331024 0.495947
0.108240 -0.009243 0.023877 0.235026 -0.912024 -0.336118
0.052914 0.022644 0.001808 -0.171645 0.029829 -0.984707
0.128058 -0.056806 0.140867 0.715920 -0.691962 -0.092988
0.038407 0.023556 0.092047 -0.568920 0.178638 0.802757
0.087179 -0.026298 0.023364 0.760023 -0.594020 -0.263640
0.080093 -0.020756 0.140298 0.499463 -0.779045 -0.378981
0.088279 -0.007091 0.148473 0.329459 0.348061 0.877674
0.067058 -0.017648 0.080315 -0.085230 -0.488977 0.868123
0.129888 -0.050142 0.124251 0.960137 -0.279362 0.009657
0.050903 0.026684 0.001891 0.049552 0.042968 -0.997847
0.112314 0.037322 0.079930 -0.096468 0.802958 0.588177
0.106431 0.007867 0.128793 -0.201031 0.883705 0.422673
0.023353 -0.010918 0.041856 -0.750227 -0.659056 0.052963
0.107487 -0.005840 0.123790 0.414443 -0.856260 -0.308312
0.111053 -0.000392 0.098129 -0.595669 -0.732228 0.330182
0.052500 0.015013 0.000867 0.381467 -0.011437 -0.924312
0.103298 -0.014498 0.035684 0.132711 -0.889757 -0.436716
0.148859 0.010314 0.053759 0.932202 -0.020130 -0.361378
0.087787 -0.017096 0.140535 0.435274 -0.899796 -0.030041
0.019292 0.033660 0.020691 0.110578 0.989393 0.094201
0.127638 0.019756 0.028460 0.417011 0.245878 -0.875012
0.133839 -0.035697 0.118476 0.974817 -0.158401 0.156973
0.076493 0.023866 0.005502 -0.035644 0.042845 -0.998446
0.090280 -0.004777 0.146262 0.258766 0.594758 0.761120
0.112880 0.037359 0.016306 0.311383 0.155239 0.937519
0.062684 -0.022377 0.067229 -0.040061 -0.762946 0.645220
0.040895 0.033602 0.088012 -0.311341 0.675662 0.668242
0.001291 0.009505 0.033978 -0.917495 -0.272293 0.289932
0.148704 0.037894 0.079292 0.518980 -0.144189 -0.842537
0.074740 0.052633 0.006177 -0.317620 0.946785 -0.052102
0.052374 0.013335 0.098420 -0.245850 -0.049787 0.968028
0.147158 0.015742 0.119847 0.565850 -0.252306 0.784956
0.101718 -0.026390 0.003083 0.424573 -0.902725 0.069461
0.059705 -0.028798 0.017488 -0.246059 -0.959698 -0.135774
0.087705 0.051019 0.050366 0.898954 0.432479 -0.069588
0.113893 0.010049 0.000767 -0.022314 -0.007969 -0.999719
0.114880 0.010385 0.125456 0.334957 0.575616 0.745969
0.047507 0.003243 0.095891 -0.392242 -0.183635 0.901346
0.069594 0.057012 0.033906 0.207410 0.977114 -0.047207
0.139247 -0.026201 0.130976 0.958883 0.191097 0.209822
0.135066 -0.018525 0.115730 0.737999 -0.069806 -0.671182
0.130798 0.054333 0.087256 -0.370978 0.927037 -0.054567
0.039767 0.035734 0.084981 -0.449164 0.750955 0.484065
0.084106 0.048833 0.016543 0.170391 0.464799 0.868866
0.105127 0.007103 0.129954 -0.194721 0.921438 0.336208
0.058384 -0.033299 0.050478 -0.251270 -0.965508 0.068248
0.093551 -0.028188 0.000842 -0.182131 -0.623629 -0.760207
0.103099 0.035279 0.082199 -0.008810 0.786739 0.617224
0.027571 0.040610 0.027218 -0.591468 0.770666 -0.237150
0.125672 -0.004634 0.032795 0.490031 -0.577657 -0.652826
0.137177 -0.039540 0.135281 0.475966 -0.492643 -0.728532
0.052754 -0.016664 0.081596 -0.300410 -0.858827 0.414933
0.086481 -0.030223 0.030544 0.639205 -0.720837 -0.267977
0.123800 -0.002787 0.117191 -0.906602 0.130072 0.401440
0.103072 -0.016569 0.041490 -0.035517 -0.959406 -0.279782
0.148387 0.040470 0.107494 0.810668 0.425110 0.402615
0.145006 0.050287 0.100330 0.684215 0.659871 0.310516
0.089448 -0.014641 0.132289 0.197929 -0.890470 -0.409741
0.122716 -0.015031 0.073951 0.451755 -0.813071 0.367196
0.057618 0.024319 0.003751 0.496788 0.536334 -0.682310
0.080847 -0.017575 0.002550 0.094371 0.759862 -0.643199
0.133894 -0.053025 0.145567 0.682821 -0.707007 0.184110
0.030179 0.042843 0.035647 -0.520984 0.850725 0.069584
0.141990 -0.003287 0.088649 0.442741 -0.876519 -0.188930
0.053775 0.044769 0.002093 -0.067915 0.174824 -0.982255
0.126744 -0.057698 0.147473 -0.046605 -0.433682 0.899860
0.134576 -0.013868 0.130773 0.399385 0.409920 0.820035
0.135713 0.043289 0.114252 0.118160 0.664404 0.737974
0.092806 0.012556 0.093611 -0.267637 0.067194 0.961174
0.017442 0.032738 0.015705 -0.150446 0.883621 -0.443373
0.110476 0.028415 0.001145 0.022507 0.104565 -0.994263
0.112792 0.045905 0.002215 -0.064917 0.373133 -0.925504
0.139752 -0.039737 0.137583 0.978757 0.095446 0.181454
0.067014 0.050151 0.003272 -0.229668 0.849153 -0.475596
0.108584 0.042133 0.071889 0.269961 0.887029 0.374568
0.128263 -0.056829 0.147971 -0.046605 -0.433682 0.899860
0.046920 0.017677 0.000731 0.006194 -0.284877 -0.958544
0.151629 0.022904 0.107728 0.975446 0.167918 -0.142507
0.132416 -0.041717 0.119741 0.928421 -0.366773 -0.059262
0.071015 0.013124 0.097139 0.158429 0.004508 0.987360
0.120638 0.045519 0.050391 0.003043 0.973423 -0.228994
0.027808 0.042498 0.059204 -0.669565 0.701987 0.242685
0.151223 0.023330 0.103483 0.964774 0.262602 0.015883
0.123353 -0.033317 0.130484 -0.949403 0.060896 0.308100
0.036643 -0.008557 0.010403 -0.687817 -0.329563 -0.646758
0.031042 0.036396 0.014283 -0.755766 0.423219 -0.499704
0.021194 0.034626 0.037197 -0.872898 0.483695 -0.063932
0.125889 0.029697 0.002096 0.235453 -0.055818 -0.970282
0.018771 -0.005235 0.058246 -0.909694 -0.385228 0.155100
0.094903 0.045632 0.002146 0.113062 0.079343 -0.990415
0.095989 -0.007930 0.143540 0.562811 -0.173178 0.808241
0.082436 -0.003117 0.128482 -0.320849 0.520076 0.791566
0.033619 0.044399 0.026112 -0.590842 0.761410 -0.266759
0.134091 -0.014116 0.113102 0.833401 -0.145489 -0.533176
0.054009 0.018393 0.098376 -0.166103 0.082217 0.982675
0.123828 -0.040514 0.133792 -0.930288 0.175430 0.322162
0.109395 0.046737 0.003019 -0.181753 0.521900 -0.833418
0.130323 -0.027975 0.114645 0.138726 -0.155331 -0.978073
0.039636 0.052202 0.045714 -0.561545 0.824319 -0.071872
0.095948 0.023091 0.001306 0.308408 0.014714 -0.951140
0.061550 -0.016910 0.001405 0.014350 0.158829 -0.987202
0.029042 -0.017858 0.047559 -0.661016 -0.745735 0.083287
0.075467 0.023753 0.094901 0.348638 0.384219 0.854884
0.129379 -0.003400 0.003827 0.890628 -0.422635 0.167813
0.087007 -0.008132 0.149363 0.327797 0.349972 0.877536
0.135540 0.031365 0.121290 0.130698 0.302500 0.944146
0.069113 -0.027394 0.012993 -0.012547 -0.784334 -0.620211
0.151231 0.033465 0.099293 0.957390 0.067344 0.280836
0.117824 0.040214 0.037650 0.122180 0.811672 -0.571193
0.062081 -0.019273 0.001194 -0.034121 0.034194 -0.998833
0.143395 0.037348 0.077448 0.350968 0.050797 -0.935009
0.118466 0.043351 0.069826 0.032681 0.923535 0.382119
0.071921 -0.036868 0.048704 -0.133861 -0.986638 -0.092883
0.091552 0.015421 0.001155 -0.504734 -0.295576 -0.811097
0.122443 0.039706 0.038355 0.314453 0.741035 -0.593285
0.121298 0.046172 0.002953 0.557072 0.729234 -0.397352
0.111248 0.045514 0.011032 -0.292825 0.711173 0.639130
0.025872 -0.016104 0.049838 -0.596958 -0.789239 -0.144021
0.091131 -0.030438 0.051076 0.872473 -0.435978 0.220711
0.125834 0.046855 0.082837 -0.740378 0.370505 -0.560863
0.081737 -0.013428 0.146231 -0.734463 0.675839 -0.061686
0.062686 0.047309 0.002266 -0.122142 0.494949 -0.860294
0.052592 -0.003316 0.094344 -0.249220 -0.513968 0.820808
0.095323 -0.016682 0.078488 -0.040950 -0.933090 0.357304
0.103363 -0.005663 0.001005 -0.063058 0.014437 -0.997905
0.022497 -0.010815 0.046311 -0.784731 -0.527645 -0.325251
0.089900 0.054180 0.003632 0.307643 0.780925 -0.543610
0.128167 -0.007741 0.126335 -0.548832 0.429852 0.716945
0.109571 0.011097 0.114249 -0.800922 0.544880 -0.248256
0.006379 0.000474 0.023982 -0.758219 -0.641520 -0.116433
0.112021 0.033090 0.097737 -0.694378 0.651084 0.306479
0.035274 -0.018836 0.063809 -0.456843 -0.860064 0.227122
0.092642 0.021291 0.092125 -0.584345 0.363916 0.725332
0.135901 -0.051058 0.146754 0.602690 -0.417161 0.680251
0.031473 -0.012053 0.016645 -0.775039 -0.262863 -0.574646
0.126643 0.005748 0.000823 0.063411 0.031451 -0.997492
0.132452 -0.008603 0.128627 0.048950 0.459079 0.887046
0.085660 0.045588 0.017774 0.177766 0.533689 0.826786
0.104611 0.044798 0.053061 -0.437174 0.894526 -0.093283
0.137825 -0.036515 0.133701 0.565025 -0.518638 -0.641687
0.059120 0.010655 0.001950 0.322234 -0.046280 -0.945528
0.068675 -0.023791 0.003422 -0.173083 -0.885627 -0.430938
0.127370 0.045345 0.056722 0.350554 0.932600 0.085849
0.119914 0.032152 0.120397 -0.301608 0.289874 0.908298
0.130715 0.003206 0.007998 0.827808 -0.181703 0.530771
0.126426 -0.025567 0.133320 -0.727936 0.228168 0.646566
0.021017 0.029636 0.066233 -0.855250 0.438917 0.275498
0.154045 0.014101 0.087822 0.978287 -0.204309 0.034805
0.105732 0.009671 0.120048 -0.569625 0.809868 -0.140147
0.120612 0.023929 0.027577 0.262235 0.376444 -0.888551
0.095488 -0.001532 0.142405 0.222448 0.585478 0.779572
0.141140 0.053661 0.092392 0.296095 0.862047 -0.411342
0.136521 0.035008 0.043666 0.650978 0.569797 -0.501557
0.072192 -0.017864 0.138125 -0.531014 0.671968 0.516220
0.130063 -0.012176 0.110906 0.369955 -0.455804 -0.809553
0.048896 -0.022294 0.009106 -0.068835 -0.904748 -0.420349
0.001180 0.008703 0.032358 -0.920591 -0.331296 0.206773
0.077658 -0.018070 0.001450 0.054364 0.523062 -0.850559
0.095480 0.014757 0.001031 0.541758 -0.002461 -0.840531
0.084498 -0.003142 0.005616 -0.003943 -0.022437 -0.999740
0.087107 -0.012869 0.149152 0.623094 -0.282153 0.729482
0.044216 0.031326 0.001991 -0.106951 0.019748 -0.994068
0.135911 -0.036942 0.140416 0.422393 0.456941 0.782808
0.059580 -0.011863 0.087493 0.135846 -0.654381 0.743862
0.035324 0.039466 0.011046 -0.724499 0.657007 -0.208430
0.126904 0.005023 0.121870 -0.381110 -0.163436 0.909969
0.100077 0.041664 0.014452 0.032577 0.964965 0.260349
0.153786 0.022331 0.097549 0.946892 0.111981 0.301424
0.060439 -0.025078 0.012087 -0.118869 -0.696723 -0.707423
0.058744 -0.018443 0.078295 0.038370 -0.995678 0.084575
0.095263 -0.009360 0.018701 0.053335 -0.864495 0.499804
0.044585 0.044342 0.073070 -0.258206 0.657417 0.707907
0.151527 0.008705 0.084214 0.934617 -0.353099 -0.042568
0.051482 0.044642 0.002287 -0.100472 0.487845 -0.867129
0.043743 0.053377 0.039547 -0.491941 0.856085 -0.158470
0.067814 -0.013895 0.084583 0.051455 -0.727455 0.684223
0.111385 -0.011284 0.000977 0.480674 -0.642194 -0.597109
0.000436 0.018090 0.033010 -0.976047 0.135130 0.170508
0.108265 0.019122 0.101730 -0.847739 0.155504 0.507106
0.003205 0.007436 0.021752 -0.906990 -0.283429 -0.311507
0.073646 0.056208 0.036483 0.242480 0.961344 -0.130468
0.113955 0.031588 0.017005 0.528609 0.173608 0.830923
0.138709 -0.047122 0.143195 0.975077 -0.210760 0.069324
0.090336 -0.026388 0.033200 0.769888 -0.587904 -0.248275
0.058943 0.004483 0.097823 -0.066135 -0.175974 0.982171
0.120046 -0.018489 0.062028 0.530793 -0.845178 0.062722
0.062388 -0.033269 0.057744 -0.300900 -0.911429 0.280637
0.015599 0.003244 0.049791 -0.934506 -0.348638 0.071770
0.047657 0.050076 0.018687 -0.547697 0.628522 -0.552258
0.148043 0.023318 0.078868 0.631015 0.227375 -0.741702
0.118281 -0.012566 0.082457 0.330282 -0.787879 0.519770
0.103679 0.029359 0.001005 0.050118 0.127498 -0.990572
0.053112 -0.028192 0.020350 -0.157509 -0.917693 -0.364733
0.109893 0.033214 0.085434 -0.559067 0.828093 -0.041300
0.136127 -0.020622 0.133136 0.557137 0.373481 0.741694
0.096001 0.021904 0.001364 0.632382 -0.009878 -0.774594
0.103093 0.028409 0.089049 0.093921 0.674836 0.731967
0.131369 -0.054350 0.143541 0.614990 -0.752448 -0.235818
0.057885 0.057572 0.028704 -0.129416 0.945083 -0.300117
0.057504 -0.016008 0.001504 0.058942 0.101981 -0.993039
0.079461 -0.015358 0.143900 -0.573531 0.807248 0.139328
0.044962 0.052633 0.032585 -0.511154 0.820411 -0.256218
0.119272 -0.006044 0.092725 -0.234802 -0.960700 0.148067
0.080966 -0.014951 0.153382 0.405256 0.007122 0.914176
0.075720 0.048088 0.066122 0.212944 0.425131 0.879727
0.086108 -0.035444 0.042111 0.577763 -0.786617 -0.217770
0.137014 0.020500 0.035935 0.669670 0.185747 -0.719056
0.066562 0.054228 0.019720 0.282579 0.869605 -0.404890
0.135800 -0.050234 0.143845 0.403029 -0.703363 -0.585532
0.102715 0.025700 0.090808 0.076207 0.512074 0.855554
0.105379 -0.019186 0.000824 0.384408 -0.124614 -0.914714
0.092796 0.031906 0.085481 -0.281796 0.579509 0.764696
0.138044 -0.017036 0.128328 0.945906 0.193491 0.260429
0.111635 0.042602 0.070675 -0.089286 0.859068 0.504015
0.084114 0.005293 0.005432 -0.017655 -0.030044 -0.999393
0.108700 0.046971 0.003317 -0.271427 0.848396 -0.454480
0.106126 0.016542 0.098692 -0.832976 0.018475 0.553000
0.088305 -0.019976 0.074101 0.221903 -0.860330 0.458902
0.096675 0.046756 0.002439 0.408827 0.456519 -0.790222
0.096952 0.045586 0.059323 0.229976 0.971762 -0.052812
0.031574 0.046014 0.047969 -0.628161 0.767778 0.126215
0.140087 0.053494 0.098952 0.188874 0.930843 0.312824
0.048420 -0.029744 0.040121 -0.385558 -0.918626 0.086438
0.046249 0.027599 0.094276 -0.379574 0.415182 0.826770
0.123582 -0.044514 0.128195 -0.985191 -0.022658 -0.169955
0.130797 0.011166 0.001912 0.621929 0.366887 -0.691808
0.006375 0.029304 0.029084 -0.638965 0.749565 0.172848
0.127814 0.036840 0.037810 0.396365 0.655422 -0.642897
0.139305 -0.029417 0.131524 0.997303 -0.007415 0.073025
0.104850 0.045786 0.003526 -0.297261 0.868399 -0.396887
0.150755 0.028982 0.112315 0.934145 0.264361 0.239764
0.093984 0.046421 0.012978 0.465454 0.600064 0.650596
0.144261 0.028601 0.048446 0.866089 0.324891 -0.379917
0.141465 -0.004430 0.048755 0.749430 -0.580895 -0.317673
0.016376 0.000017 0.050929 -0.965994 -0.258109 0.015374
0.042767 0.047114 0.069241 -0.238205 0.875149 0.421157
0.113311 0.013591 0.121839 -0.336993 0.814460 0.472324
0.092367 0.036711 0.003015 -0.018108 -0.647888 -0.761520
0.048591 0.025326 0.001722 0.046970 0.042874 -0.997976
0.033842 0.045208 0.032837 -0.481572 0.872265 0.085104
0.049512 0.044423 0.002396 -0.104629 0.482363 -0.869700
0.075484 0.051732 0.002602 -0.105697 0.519259 -0.848055
0.096022 -0.002291 0.142564 0.376707 0.437078 0.816734
0.017902 0.029358 0.051539 -0.894211 0.447526 -0.010358
0.086411 0.045714 0.065306 0.164938 0.986289 0.005484
0.003990 0.025008 0.023321 -0.843219 0.448052 -0.297039
0.134176 -0.026466 0.115835 0.672918 -0.104263 -0.732332
0.122671 -0.007392 0.001006 0.336657 -0.705600 -0.623531
0.104015 0.044885 0.002876 -0.146370 0.724539 -0.673513
0.143233 0.003787 0.043719 0.840456 -0.307401 -0.446250
0.112875 0.000110 0.102641 -0.616838 -0.714970 0.329134
0.011799 -0.000741 0.030359 -0.025262 -0.784246 0.619935
0.065822 0.057815 0.058834 -0.122441 0.950481 0.285646
0.120379 -0.015164 0.040548 0.194779 -0.802661 -0.563734
0.017634 0.026836 0.058369 -0.933206 0.342018 0.110229
0.137016 -0.024596 0.126727 0.736576 -0.322079 -0.594745
0.029811 0.030285 0.081736 -0.676634 0.553013 0.486151
0.018835 -0.001405 0.063492 -0.893203 -0.350907 0.281162
0.104854 0.005462 0.133288 0.125825 0.774288 0.620198
0.145009 0.024792 0.048384 0.894018 0.182093 -0.409357
0.068457 -0.000187 0.095406 0.153720 -0.227858 0.961484
0.115280 0.031944 0.001461 -0.010817 0.031942 -0.999431
0.091311 -0.007816 0.123099 -0.204976 -0.532111 -0.821488
0.073028 0.058535 0.044274 0.207743 0.960478 -0.185271
0.095450 -0.005829 0.120821 -0.178761 -0.543217 -0.820341
0.113060 0.028208 0.024808 0.914945 0.334487 -0.225817
0.100482 -0.009691 0.023005 -0.045108 -0.988658 -0.143250
0.015543 0.008012 0.059883 -0.993452 -0.035090 0.108730
0.052202 -0.030246 0.033481 -0.323903 -0.944199 -0.059792
0.109798 -0.010595 0.030143 0.525412 -0.816724 -0.238545
0.144487 -0.000512 0.069328 0.883354 -0.422499 0.202930
0.111991 0.002658 0.105621 -0.692790 -0.720448 0.031588
0.049428 0.046522 0.071394 0.221964 0.719909 0.657619
0.088917 -0.008461 0.148180 0.534235 0.071353 0.842320
0.142953 0.031106 0.070632 0.721674 0.652361 0.231543
0.063065 0.059307 0.038703 -0.151002 0.922068 -0.356354
0.059123 0.054270 0.018181 -0.321968 0.894268 -0.310839
0.062020 -0.015638 0.083326 0.208342 -0.817717 0.536593
0.120510 0.006398 0.014896 0.341443 -0.091829 0.935406
0.056169 -0.002738 0.094889 -0.023268 -0.413252 0.910319
0.006893 0.003173 0.018190 -0.687320 -0.498326 -0.528453
0.101572 0.022603 0.001300 -0.353558 0.392854 -0.848919
0.096856 0.046610 0.002448 0.408827 0.456519 -0.790222
0.136138 -0.006491 0.041703 0.597000 -0.598594 -0.534113
0.008559 -0.001296 0.023268 -0.495867 -0.848312 -0.185695
0.019405 0.009549 0.071466 -0.908987 -0.006570 0.416772
0.127245 0.035110 0.005296 0.914883 -0.095831 0.392180
0.015744 0.012838 0.060245 -0.987818 0.059060 0.143970
0.094054 -0.010977 0.143362 0.640602 -0.535262 0.550566
0.079295 -0.031632 0.023357 0.189989 -0.890992 -0.412356
0.086756 0.048187 0.059250 0.781305 0.495814 0.379120
0.066188 -0.021826 0.001441 -0.067997 -0.525012 -0.848374
0.112428 0.040714 0.037802 0.033552 0.814811 -0.578755
0.122939 0.028974 0.122004 -0.132255 0.218321 0.966874
0.072456 -0.019797 0.141531 -0.776195 0.517889 0.359601
0.022677 0.033128 0.015005 0.093750 0.945060 -0.313165
0.104652 0.023051 0.000648 0.169842 -0.430184 -0.886620
0.142268 0.012968 0.040516 0.840394 0.039692 -0.540521
0.137781 -0.042378 0.142580 0.383033 0.468196 0.796291
0.081886 -0.018218 0.077986 0.070722 -0.849301 0.523150
0.107659 0.004191 0.133517 0.369198 0.541998 0.754938
0.039922 0.050284 0.035344 -0.594050 0.766174 -0.245116
0.125880 0.018092 0.002979 0.718731 0.659982 -0.218744
0.150126 0.036958 0.105841 0.985084 0.125086 0.118163
0.127326 -0.044645 0.140563 -0.586873 0.319442 0.744001
0.137034 -0.006490 0.074221 0.625385 -0.699745 0.345326
0.125613 0.027667 0.002230 0.728532 -0.232200 -0.644456
0.121442 0.046446 0.005142 0.565783 0.821690 -0.068670
0.056326 -0.021097 0.002386 -0.217254 -0.624308 -0.750360
0.136863 0.016954 0.122880 0.154932 0.034177 0.987334
0.099585 -0.024151 0.009719 0.660891 -0.486159 0.571728
0.123985 -0.059190 0.144346 0.153258 -0.926973 0.342393
0.088964 -0.022412 0.065097 0.207306 -0.945217 0.252168
0.149870 0.032749 0.111282 0.916426 0.307036 0.256697
0.113399 0.044167 0.001782 -0.097434 0.150080 -0.983861
0.065739 0.059737 0.044914 0.191109 0.979907 0.057098
0.054470 0.057691 0.049248 -0.303138 0.936352 -0.177067
0.091139 -0.009034 0.146982 0.565152 -0.045152 0.823750
0.132448 0.037194 0.041235 0.620507 0.579191 -0.528687
0.113297 0.030783 0.102674 -0.730013 0.521696 0.441492
0.028213 0.038583 0.067632 -0.580440 0.718495 0.383217
0.111441 0.011175 0.124670 -0.336993 0.814460 0.472324
0.124640 -0.059519 0.142949 0.274155 -0.960575 0.046208
0.105003 0.038726 0.077948 -0.023022 0.758446 0.651330
0.033900 -0.000630 0.005456 -0.233690 -0.635938 -0.735508
0.065304 0.012347 0.098023 0.111101 0.007889 0.993778
0.107879 0.046089 0.053518 -0.367090 0.929752 0.028391
0.115440 0.031412 0.106133 -0.766210 0.621556 0.163066
0.126299 -0.016533 0.047914 0.326369 -0.914588 -0.238772
0.138129 -0.028519 0.135131 0.730750 0.300433 0.612980
0.035965 -0.020629 0.059304 -0.450429 -0.810360 0.374741
0.074385 0.058408 0.045428 0.290498 0.948378 -0.127238
0.075882 -0.023457 0.140639 0.440191 -0.743836 -0.502931
0.074273 -0.014232 0.135344 -0.327303 0.695038 0.640152
0.098321 -0.011906 0.002929 -0.622000 0.283359 -0.729947
0.119717 0.044546 0.001997 0.006518 0.148041 -0.988960
0.151223 0.007845 0.096418 0.874559 -0.480814 0.062968
0.096026 0.002579 0.120304 -0.603497 0.585712 -0.541048
0.142487 0.028275 0.045473 0.802916 0.304531 -0.512432
0.114890 0.042873 0.070646 -0.114737 0.906962 0.405285
0.037897 -0.023767 0.023409 -0.592516 -0.794906 -0.130574
0.031283 -0.013999 0.018621 -0.760539 -0.475457 -0.442178
0.116091 0.012590 0.015710 0.592524 0.398473 0.700096
0.044472 0.041135 0.077656 -0.255719 0.843321 0.472670
0.150022 0.013191 0.056676 0.961665 0.034064 -0.272104
0.131841 -0.011346 0.042798 0.563056 -0.635908 -0.527815
0.069908 -0.024811 0.139127 -0.459090 -0.717755 -0.523512
0.133644 -0.032177 0.124999 0.982730 -0.174225 -0.062355
0.080535 0.057631 0.053443 0.348080 0.898308 0.268110
0.091774 -0.013624 0.019861 0.958484 -0.283632 -0.029353
0.100738 0.041351 0.022850 0.033651 0.992473 -0.117751
0.080889 0.021559 0.005309 -0.028790 0.018505 -0.999414
0.116360 0.000031 0.113779 -0.062525 -0.978663 -0.195729
0.132456 0.003644 0.002281 0.807722 -0.098099 -0.581344
0.084716 -0.001457 0.128145 -0.123829 0.565100 0.815676
0.138574 -0.036956 0.138988 0.569505 0.398305 0.719039
0.063422 -0.022295 0.001953 -0.094263 -0.723383 -0.683983
0.092774 0.000978 0.127961 -0.007316 0.481431 0.876453
0.135034 0.018458 0.033431 0.757279 0.084147 -0.647648
0.102924 0.045147 0.003949 -0.339279 0.939460 -0.048013
0.120196 -0.016591 0.071561 0.240370 -0.940411 0.240520
0.125210 -0.059048 0.138393 0.576209 -0.807063 -0.128972
0.139384 -0.008873 0.053711 0.812004 -0.582768 -0.032112
0.146087 0.002220 0.051361 0.877185 -0.246400 -0.412108
0.108479 0.045913 0.051125 -0.242062 0.935365 -0.257874
0.091191 0.040834 0.034897 -0.292160 0.929059 -0.226920
0.138790 -0.031333 0.135709 0.732230 0.297729 0.612533
0.031378 0.040347 0.069137 -0.565675 0.617649 0.546371
0.097809 -0.020760 0.051416 0.319701 -0.940682 -0.113618
0.104140 0.043040 0.069451 -0.263424 0.944457 0.196491
0.030660 0.014436 0.086858 -0.722893 0.030564 0.690284
0.089315 0.019333 0.003097 -0.771945 0.219830 -0.596469
0.067655 0.041000 0.083698 0.052026 0.885085 0.462512
0.000739 0.015086 0.035468 -0.923476 0.006381 0.383603
0.129917 -0.003266 0.034939 0.495211 -0.493497 -0.715001
0.051907 -0.016842 0.001513 -0.083478 -0.090898 -0.992355
0.000184 0.014116 0.032818 -0.982711 -0.146817 0.112801
0.100346 -0.019399 0.070039 -0.071230 -0.960455 0.269170
0.089522 -0.032806 0.051155 0.712501 -0.689864 0.128178
0.107780 0.007934 0.129293 -0.201031 0.883705 0.422673
0.047796 0.055303 0.039696 -0.414702 0.907316 -0.069276
0.119049 0.034668 0.105715 -0.541403 0.811449 0.220077
0.139294 -0.027869 0.131827 0.977673 0.083294 0.192921
0.117516 0.006384 0.022028 0.969144 0.143663 -0.200304
0.110272 -0.010706 0.000837 0.040223 -0.162021 -0.985967
0.111537 0.033538 0.025438 0.900459 0.425747 -0.088957
0.136076 0.048739 0.108113 0.034827 0.805073 0.592152
0.065986 -0.035705 0.044283 -0.224399 -0.953474 -0.201325
0.042385 0.030440 0.091033 -0.346496 0.493706 0.797618
0.102869 0.005786 0.127365 -0.753927 0.637081 -0.160378
0.107233 0.027514 0.093177 -0.695248 0.302467 0.652031
0.136398 -0.016816 0.118746 0.943542 0.001313 0.331251
0.002163 0.012972 0.037399 -0.788024 -0.240667 0.566654
0.066616 -0.020008 0.001067 -0.007441 0.070326 -0.997496
0.149216 0.019171 0.069095 0.940283 0.228725 0.252097
0.115098 0.043064 0.013674 -0.059340 0.598162 0.799175
0.131761 -0.017085 0.112342 0.157944 -0.283930 -0.945747
0.051620 0.053006 0.019648 -0.458624 0.806149 -0.373882
0.047764 -0.001058 0.001516 -0.032907 -0.032032 -0.998945
0.056331 0.004641 0.001628 0.314638 -0.205575 -0.926683
0.122694 -0.009887 0.083568 0.370505 -0.755872 0.539799
0.114644 0.001361 0.128763 0.752909 -0.390663 0.529632
0.118995 0.034803 0.114082 -0.791480 0.601975 0.105763
0.135462 0.023564 0.035666 0.618502 0.230704 -0.751153
0.115325 0.000414 0.000662 -0.002991 0.005381 -0.999981
0.097747 0.040638 0.072477 0.102536 0.868021 0.485826
0.087180 -0.025109 0.000668 -0.079170 -0.207129 -0.975105
0.092711 -0.024655 0.038539 0.900130 -0.346123 -0.264509
0.126157 0.002273 0.029164 0.385455 -0.219177 -0.896318
0.043288 -0.005745 0.001933 -0.285046 -0.120772 -0.950875
0.036275 0.016299 0.001864 0.285560 -0.012509 -0.958279
0.073062 0.058843 0.051144 0.070691 0.995930 0.055905
0.131451 -0.023931 0.135867 -0.110252 0.408419 0.906112
0.145741 0.008279 0.117888 0.735846 -0.514376 0.440394
0.148296 0.027479 0.117824 0.596084 0.346301 0.724403
0.085398 0.042421 0.021767 0.821519 0.569965 -0.015678
0.124330 0.003015 0.121087 -0.388969 -0.323568 0.862558
0.141231 -0.004631 0.048630 0.699681 -0.681955 -0.213033
0.087474 0.047017 0.001943 0.014304 0.055299 -0.998367
0.133371 -0.006511 0.098139 0.253168 -0.962713 0.095344
0.125008 0.049045 0.087457 -0.854895 0.502622 -0.128553
0.015056 0.015150 0.053972 -0.993988 0.070070 0.084137
0.053378 -0.021564 0.066238 -0.168582 -0.605590 0.777715
0.138907 -0.031037 0.135350 0.894909 0.237889 0.377554
0.139072 -0.040461 0.137311 0.595041 -0.413677 -0.689056
0.125469 0.032730 0.121166 -0.041687 0.379154 0.924394
0.042444 0.049012 0.063089 -0.151755 0.963778 0.219323
0.133165 0.007992 0.003016 0.988348 -0.092220 0.121096
0.126285 -0.012825 0.040114 0.455650 -0.633386 -0.625464
0.076648 0.032516 0.005913 -0.032972 0.077571 -0.996441
0.136321 -0.034791 0.131510 0.549920 -0.405477 -0.730190
0.090279 0.044607 0.067973 -0.028043 0.931683 0.362190
0.038518 0.042474 0.011779 -0.509036 0.846166 0.157753
0.130630 -0.047664 0.124291 0.951637 -0.306944 0.013158
0.123517 -0.002362 0.030031 0.278437 -0.375742 -0.883907
0.135780 -0.051153 0.146803 0.602690 -0.417161 0.680251
0.101324 0.021764 0.001015 -0.127474 -0.228757 -0.965101
0.030347 -0.013619 0.068771 -0.575214 -0.767724 0.282363
0.061447 0.010524 0.003007 0.752093 -0.191166 -0.630723
0.097242 0.000929 0.133133 -0.782327 0.594951 -0.184386
0.124386 -0.059740 0.139043 0.437997 -0.884139 -0.162656
0.101030 -0.020493 0.065626 0.051926 -0.978992 0.197176
0.015114 0.020970 0.048931 -0.955291 0.291544 0.049201
0.139450 -0.043532 0.140435 0.943562 -0.258039 -0.207622
0.082428 0.047294 0.001925 -0.015436 0.012767 -0.999799
0.075488 0.057772 0.057493 0.160627 0.958940 0.233736
0.101581 0.002541 0.137289 0.114199 0.756214 0.644282
0.138604 -0.002334 0.115964 0.957476 -0.245834 -0.151015
0.009288 0.000191 0.018541 -0.557403 -0.642419 -0.525928
0.099919 -0.016730 0.042286 -0.003366 -0.951843 -0.306568
0.142776 0.053023 0.093761 0.525827 0.848660 -0.057289
0.128624 -0.018160 0.112549 -0.135907 -0.188794 -0.972567
0.053456 0.002660 0.097045 -0.168282 -0.230356 0.958445
0.139013 0.030603 0.042583 0.726762 0.418645 -0.544567
0.115918 0.002221 0.127463 0.756806 -0.468252 0.456054
0.041278 -0.019806 0.011546 -0.617731 -0.772433 -0.147499
0.135120 -0.028661 0.118129 0.988557 -0.061832 -0.137591
0.122054 0.018152 0.007904 0.485799 0.621633 0.614469
0.099167 0.002437 0.129726 -0.696125 0.704444 -0.138453
0.041550 0.043430 0.005726 -0.569354 0.705748 -0.421611
0.051536 0.014954 0.000470 -0.515816 -0.024467 -0.856350
0.038865 0.050699 0.052390 -0.453958 0.870107 0.191928
0.132288 0.041189 0.066729 0.441924 0.842535 0.307958
0.124474 -0.007924 0.121553 -0.912235 0.235481 0.335226
0.126385 0.015916 0.001668 0.333150 0.280262 -0.900258
0.093084 0.001885 0.122126 -0.496603 0.652094 -0.572852
0.032860 0.021061 0.002875 -0.237525 0.191642 -0.952289
0.108901 -0.002699 0.094864 0.022078 -0.601998 0.798192
0.082827 -0.012618 0.142140 -0.611714 0.780688 0.127799
0.043325 0.036242 0.086069 -0.213233 0.858954 0.465542
0.028525 -0.016024 0.030208 -0.747186 -0.624885 -0.226346
0.021974 0.033407 0.018591 0.155023 0.985321 0.071486
0.118207 -0.006631 0.000807 0.065498 -0.042920 -0.996929
0.060035 -0.027521 0.063974 -0.138766 -0.525405 0.839461
0.087472 -0.023812 0.018768 0.780178 -0.586382 -0.217895
0.153611 0.036207 0.088221 0.995018 -0.080386 0.058968
0.150327 0.033527 0.105249 0.993551 -0.049438 -0.102039
0.053647 -0.031426 0.036927 -0.239635 -0.894991 -0.376253
0.130612 -0.007082 0.082157 0.422339 -0.896571 0.133383
0.049155 0.046343 0.010666 -0.130306 0.984161 0.120197
0.050411 0.017065 0.001244 0.036733 -0.136288 -0.989988
0.151864 0.045624 0.089987 0.801526 0.590567 0.093733
0.041263 -0.016217 0.072828 -0.183395 -0.867647 0.462120
0.112342 -0.016856 0.076781 0.142446 -0.948838 0.281807
0.126720 -0.057246 0.133323 0.528212 -0.838529 -0.133644
0.030922 -0.019149 0.037734 -0.735339 -0.641906 -0.217331
0.119463 0.045768 0.062225 -0.066540 0.941820 0.329466
0.070550 0.050984 0.010212 -0.287883 0.900601 0.325639
0.125838 -0.032692 0.134827 -0.796316 0.158919 0.583632
0.046127 0.009471 0.096463 -0.424220 -0.079108 0.902097
0.139243 0.050226 0.105666 0.085571 0.854971 0.511569
0.035281 0.046048 0.028424 -0.539491 0.840134 -0.055886
0.096008 0.026816 0.090145 -0.248976 0.474113 0.844528
0.074991 -0.034787 0.029009 0.034978 -0.912247 -0.408146
0.059625 0.048140 0.004199 -0.267669 0.962310 -0.048083
0.146920 0.048056 0.082852 0.471242 0.729654 -0.495515
0.132680 0.027270 0.034705 0.531322 0.311972 -0.787636
0.026678 0.036288 0.068569 -0.728067 0.572623 0.376857
0.053699 0.009837 0.001673 -0.079736 -0.363533 -0.928163
0.007927 0.022631 0.014956 -0.694748 0.253196 -0.673214
0.097764 0.042956 0.002259 0.113061 0.079343 -0.990415
0.089921 0.054592 0.006188 0.502621 0.859706 -0.090978
0.136334 -0.050683 0.146468 0.824378 -0.356793 0.439432
0.133765 0.054527 0.085769 -0.104766 0.986873 -0.122902
0.126380 -0.009835 0.037395 0.437854 -0.524169 -0.730432
0.117692 -0.002433 0.106424 -0.489272 -0.828774 0.271563
0.135920 -0.012321 0.059850 0.575787 -0.793030 0.198930
0.095536 -0.015972 0.002487 -0.281462 0.387057 -0.878047
0.065501 -0.018171 0.079837 -0.146438 -0.509253 0.848067
0.103450 -0.017018 0.010670 0.781440 -0.195893 0.592433
0.033832 0.026773 0.004393 -0.403214 0.361289 -0.840767
0.099316 0.041061 0.001799 -0.087316 0.284515 -0.954687
0.121959 0.044377 0.087663 -0.784523 0.619297 0.031558
0.095626 0.033219 0.001748 -0.094039 0.066944 -0.993315
0.132536 -0.044926 0.134463 0.777751 -0.439097 -0.449775
0.063573 -0.021516 0.069296 -0.154306 -0.970606 0.184699
0.068576 -0.017061 0.080676 0.113012 -0.690444 0.714504
0.083106 0.051187 0.037991 0.799678 0.537877 -0.266839
0.105812 -0.007191 0.127647 0.530958 -0.845535 -0.056165
0.117107 0.018937 0.010691 0.365824 0.458396 0.809966
0.056198 0.051692 0.015064 -0.069638 0.756267 -0.650546
0.102902 -0.002873 0.139258 0.508677 0.048161 0.859609
0.027633 -0.012257 0.066279 -0.632673 -0.763674 0.128554
0.021830 0.034131 0.060964 -0.850050 0.510314 0.130368
0.091007 -0.015350 0.136922 0.436338 -0.892828 -0.111657
0.136911 -0.050110 0.145851 0.824378 -0.356793 0.439432
0.131062 0.011864 0.002602 0.744887 0.499879 -0.441887
0.140934 0.017307 0.038761 0.788467 0.147829 -0.597047
0.078747 0.053644 0.033442 0.694413 0.669191 -0.264527
0.067648 0.059438 0.040490 0.179164 0.982654 -0.047871
0.114282 0.003812 0.129510 0.631126 0.165179 0.757889
0.153318 0.032527 0.088863 0.996901 -0.060235 0.050596
0.111150 0.046466 0.056728 -0.005204 0.951643 0.307163
0.071051 0.042414 0.003340 0.233558 -0.792677 -0.563129
0.037492 0.040347 0.007867 -0.752693 0.459453 -0.471546
0.111124 0.008259 0.128579 0.075769 0.793408 0.603955
0.041263 0.049708 0.025338 -0.537845 0.821500 -0.189367
0.053041 -0.031125 0.053825 -0.379511 -0.922071 0.075868
0.062946 -0.026925 0.064783 -0.120345 -0.524315 0.842977
0.150066 0.029896 0.113994 0.852925 0.342318 0.394130
0.145826 0.049702 0.084412 0.253996 0.952412 -0.168513
0.113725 -0.010316 0.000936 0.140532 -0.704667 -0.695482
0.122933 -0.028733 0.122032 -0.985594 -0.071035 -0.153490
0.029676 0.044613 0.044888 -0.584450 0.805072 -0.101378
0.077637 0.054399 0.032395 0.703977 0.664600 -0.250445
0.119935 0.016360 0.000927 0.060039 0.049648 -0.996961
0.138442 -0.016047 0.124319 0.927947 -0.147414 -0.342321
0.107301 -0.013301 0.034619 0.315254 -0.876544 -0.363712
0.094778 0.042840 0.041172 -0.222741 0.974560 -0.024868
0.008756 0.024821 0.015688 -0.609690 0.458289 -0.646722
0.041255 0.044139 0.008155 -0.492371 0.870192 -0.018373
0.096137 0.004433 0.123614 -0.359084 0.864200 -0.352443
0.066699 0.032427 0.093145 0.068907 0.576774 0.813992
0.098599 0.017370 0.001610 -0.093225 -0.021346 -0.995416
0.046905 -0.012133 0.085755 -0.441846 -0.713802 0.543377
0.093032 -0.002942 0.137286 -0.768740 0.595389 -0.233561
0.133306 0.016517 0.031452 0.720827 0.045635 -0.691611
0.057397 0.041421 0.002117 -0.014083 0.037323 -0.999204
0.095782 0.020186 0.001207 0.325151 0.013564 -0.945565
0.142595 0.035330 0.077144 0.356279 -0.190498 -0.914754
0.005883 0.028048 0.024451 -0.727229 0.590833 -0.349363
0.019624 0.033016 0.015525 -0.128781 0.884429 -0.448555
0.021009 -0.010113 0.055568 -0.781252 -0.603496 0.159495
0.149960 0.022219 0.118195 0.740867 0.171036 0.649510
0.074224 -0.029770 0.063139 0.072340 -0.485070 0.871478
0.106673 -0.004719 0.120047 0.227697 -0.851433 -0.472457
0.098474 -0.001883 0.003843 -0.565038 -0.183005 -0.804513
0.141536 0.007017 0.120261 0.424530 -0.330690 0.842863
0.135118 -0.031821 0.128497 0.812652 -0.276916 -0.512752
0.067429 -0.015341 0.002898 0.105374 0.768671 -0.630905
0.077700 0.051642 0.022608 0.538090 0.815503 -0.213105
0.014032 -0.003267 0.018343 -0.447227 -0.811386 -0.376352
0.146792 0.020445 0.049544 0.929324 0.147103 -0.338699
0.136044 -0.022457 0.124366 0.732966 -0.325296 -0.597447
0.116884 -0.019599 0.064324 0.343615 -0.922155 0.177647
0.127166 0.052262 0.090301 -0.650254 0.756653 0.068159
0.122539 0.044956 0.006621 0.634842 0.704243 0.317831
0.135057 -0.027911 0.137121 0.388450 0.357185 0.849427
0.132218 0.023354 0.032573 0.659946 0.313892 -0.682600
0.133057 -0.005284 0.126838 0.237926 0.457301 0.856894
0.093730 -0.013556 0.017363 0.528295 -0.332931 0.781064
0.051338 0.053389 0.020830 -0.274210 0.923843 -0.267062
0.068570 -0.018225 0.079551 0.117234 -0.693313 0.711037
0.046652 0.034428 0.089694 -0.424671 0.622404 0.657470
0.136983 -0.005382 0.113629 0.803893 -0.340920 -0.487371
0.144449 0.027699 0.073703 0.736844 0.595673 0.319742
0.134661 -0.000916 0.123988 0.545920 0.259301 0.796702
0.090340 0.001476 0.127311 -0.203295 0.535526 0.819685
0.139960 0.049851 0.082386 0.414187 0.789378 -0.453136
0.054008 -0.026696 0.016845 -0.075618 -0.845120 -0.529201
0.055941 0.030958 0.094354 -0.075599 0.571492 0.817118
0.017666 0.011450 0.007377 -0.490555 -0.010207 -0.871350
0.047036 -0.010809 0.001616 -0.057111 -0.001719 -0.998366
0.115943 0.003039 0.127921 0.691996 -0.009649 0.721837
0.069177 0.056269 0.026465 -0.000605 0.894914 -0.446238
0.055385 0.047180 0.003181 -0.177275 0.825760 -0.535439
0.039714 0.039285 0.078344 -0.279342 0.830326 0.482210
0.109006 -0.002559 0.133211 0.728578 -0.435226 0.528916
0.116618 0.031174 0.116194 -0.870034 0.489095 0.061855
0.070797 -0.019125 0.137078 -0.768875 0.518031 0.374799
0.095556 0.016255 0.001075 0.323340 0.011586 -0.946212
0.048380 0.045579 0.003432 -0.272077 0.561996 -0.781111
0.134854 0.038569 0.072960 0.254075 0.939241 -0.230807
0.090853 -0.012210 0.084162 0.113152 -0.741687 0.661134
0.077532 -0.037228 0.046230 -0.102491 -0.994470 -0.022921
0.119576 0.018407 0.009471 0.482627 0.557697 0.675311
0.138729 0.022785 0.038205 0.771976 0.251001 -0.583996
0.114649 0.023613 0.012840 0.615257 -0.349774 0.706482
0.056053 -0.022592 0.008075 -0.146614 -0.989103 0.013406
0.056642 0.047524 0.005589 -0.201996 0.978984 0.028083
0.151224 0.027067 0.108510 0.936469 0.097456 -0.336938
0.079966 -0.017443 0.153827 0.398937 -0.002925 0.916974
0.095588 -0.016421 0.037269 0.765034 -0.561043 -0.316155
0.039024 0.035155 0.003959 -0.565345 0.176842 -0.805675
0.137015 -0.044725 0.139133 0.411839 -0.571398 -0.709854
0.122323 0.037310 0.106777 -0.730255 0.670884 -0.129003
0.075573 -0.016797 0.140161 -0.513051 0.772610 0.373969
0.030660 0.028209 0.006396 -0.272735 0.461444 -0.844207
0.045668 0.010577 0.001904 0.911218 -0.371091 -0.178814
0.022604 0.035989 0.031193 -0.821932 0.536267 -0.191951
0.120129 0.042029 0.093977 -0.435901 0.872701 0.219963
0.081009 -0.014061 0.152976 -0.614892 0.630348 0.473887
0.135310 -0.027138 0.118805 0.884288 -0.456793 -0.096825
0.123540 0.010466 0.026583 0.305651 -0.106119 -0.946211
0.082895 -0.013445 0.152206 0.563232 -0.117985 0.817832
0.130651 -0.047504 0.126372 0.967060 -0.247414 0.059835
0.118795 0.047676 0.005164 0.391323 0.916072 -0.087629
0.092922 0.010791 0.001817 -0.459170 0.040366 -0.887431
0.086557 0.055124 0.003633 0.098527 0.892264 -0.440633
0.044197 0.038571 0.082099 -0.230035 0.865761 0.444457
0.068376 0.047712 0.002097 0.003216 0.048307 -0.998827
0.026378 -0.005019 0.075792 -0.801559 -0.348998 0.485493
0.026808 0.029320 0.078448 -0.732327 0.538602 0.416659
0.074786 0.008916 0.005564 -0.016145 -0.013966 -0.999772
0.046240 -0.004985 0.091171 -0.387340 -0.474829 0.790257
0.109729 0.037722 0.001697 -0.011932 0.019351 -0.999742
0.121247 0.000222 0.000669 0.009586 -0.002964 -0.999950
0.056453 0.047416 0.008487 -0.176014 0.984205 0.018941
0.136277 0.040633 0.056292 0.627627 0.774719 -0.076775
0.045758 -0.027614 0.029395 -0.358616 -0.911842 -0.199850
0.072357 0.007828 0.096370 0.172839 -0.113475 0.978392
0.017491 0.011382 0.066850 -0.954591 0.054944 0.292810
0.097128 -0.017409 0.043102 0.211036 -0.950946 -0.226199
0.113022 -0.020014 0.067054 0.267502 -0.905859 0.328425
0.082978 -0.027076 0.005976 -0.206310 -0.978487 0.000241
0.091400 -0.031474 0.046070 0.768965 -0.636566 0.058957
0.092458 -0.013994 0.140369 0.579407 -0.777793 0.243567
0.049014 0.007126 0.002102 0.504137 0.172770 -0.846166
0.148631 0.036734 0.110939 0.811903 0.423495 0.401827
0.098668 0.002060 0.138270 0.079600 0.755387 0.650426
0.091859 0.046085 0.063551 0.182526 0.981951 -0.049555
0.126488 0.038997 0.003092 0.896556 0.242234 -0.370823
0.138989 -0.024175 0.130054 0.975532 0.181201 0.124513
0.112793 0.044265 0.042860 0.105035 0.903883 -0.414684
0.073146 -0.016390 0.002772 0.144039 0.784801 -0.602777
0.134297 -0.017747 0.114596 0.754535 -0.186175 -0.629297
0.051735 0.044522 0.002190 -0.075017 0.238791 -0.968169
0.086199 -0.009685 0.140209 -0.680119 0.720503 -0.135330
0.051085 0.020669 0.001870 0.081612 -0.012008 -0.996592
0.024145 0.032123 0.013182 -0.000094 0.865707 -0.500551
0.152881 0.042562 0.091886 0.875306 0.429058 0.223044
0.014901 0.029932 0.031312 0.275143 0.776043 0.567498
0.140592 0.033085 0.072415 0.721677 0.652358 0.231541
0.031081 0.043671 0.062542 -0.539105 0.790455 0.290771
0.038248 0.049439 0.056909 -0.409728 0.889742 0.201203
0.026573 -0.015445 0.044529 -0.829368 -0.549727 -0.099748
0.062744 -0.021591 0.001631 -0.059646 -0.461800 -0.884976
0.148681 0.020275 0.054558 0.916542 0.143563 -0.373283
0.124033 0.047076 0.091720 -0.825429 0.512350 0.236992
0.103103 0.006387 0.129361 -0.546256 0.837065 0.030451
0.081341 0.047321 0.021054 0.609722 0.788360 -0.082021
0.111565 -0.003232 0.125089 0.578841 -0.815051 0.025183
0.112276 -0.002603 0.119885 0.262497 -0.921976 -0.284704
0.106168 0.008134 0.115413 -0.637548 0.623227 -0.452902
0.135805 -0.021961 0.119300 0.917148 -0.071406 0.392097
0.076496 0.058077 0.046138 0.146259 0.988117 -0.047256
0.081909 0.057576 0.049463 0.436819 0.892287 -0.114073
0.048584 -0.028016 0.025955 -0.289571 -0.956106 -0.044828
0.048501 0.055157 0.055659 -0.579191 0.814717 0.027805
0.147228 0.016788 0.049301 0.961174 0.134581 -0.240899
0.147239 0.012373 0.050151 0.989558 -0.027521 -0.141482
0.124360 0.042126 0.099862 -0.611367 0.689359 0.388606
0.132002 -0.045712 0.144454 -0.374638 0.408626 0.832269
0.093560 -0.013209 0.005173 -0.215146 0.224466 -0.950435
0.074926 -0.005995 0.090614 0.176280 -0.598164 0.781745
0.020737 -0.007106 0.034131 -0.861955 -0.425401 -0.275801
0.123532 -0.059846 0.142728 0.274155 -0.960575 0.046208
0.113372 0.020072 0.000766 0.129788 0.151948 -0.979830
0.072497 -0.022234 0.000872 -0.071839 -0.304495 -0.949801
0.056862 0.053473 0.063885 -0.276434 0.642686 0.714520
0.059998 0.057978 0.034486 -0.171843 0.985097 0.007384
0.097167 0.045168 0.061864 0.356585 0.926264 0.121988
0.100521 -0.018517 0.074219 0.029114 -0.965364 0.259277
0.065746 -0.002686 0.006076 0.003264 -0.037393 -0.999295
0.015619 -0.001410 0.029085 0.092501 -0.832910 0.545622
0.062122 0.059361 0.046274 -0.026439 0.985923 0.165096
0.036774 0.027092 0.089854 -0.591881 0.349563 0.726280
0.103747 0.035789 0.001634 0.009513 0.032889 -0.999414
0.007465 0.012481 0.014177 -0.695723 -0.006592 -0.718280
0.137787 -0.009461 0.065443 0.688509 -0.665637 0.287892
0.146907 0.012837 0.047894 0.862785 -0.095465 -0.496476
0.133780 0.020274 0.032359 0.680348 0.472177 -0.560514
0.047136 0.053520 0.058568 -0.507005 0.801976 0.315880
0.138425 -0.003537 0.077274 0.681213 -0.632555 0.368542
0.066858 -0.033735 0.058735 -0.175092 -0.924196 0.339417
0.031885 -0.018737 0.029631 -0.731746 -0.679801 0.049179
0.112458 -0.012827 0.084445 0.202572 -0.770838 0.603964
0.017218 -0.001101 0.041194 -0.925302 -0.357617 -0.126197
0.132759 -0.039708 0.141883 -0.241905 0.339011 0.909150
0.135347 0.032628 0.039693 0.689723 0.465813 -0.554347
0.117053 0.000096 0.121669 0.646138 -0.700939 0.301979
0.021076 0.022884 0.072280 -0.904671 0.204916 0.373603
0.091967 -0.004617 0.136621 -0.779003 0.580691 -0.236542
0.086565 0.001803 0.091906 0.011257 -0.114428 0.993368
0.105937 -0.016987 0.043919 0.040985 -0.880179 -0.472869
0.088851 -0.023836 0.025073 0.743286 -0.653527 -0.142927
0.048445 0.030704 0.001954 0.030936 0.031151 -0.999036
0.110976 0.041997 0.001747 -0.015830 0.013398 -0.999785
0.151308 0.017143 0.104280 0.983113 -0.180712 -0.028836
0.042131 -0.010879 0.003766 -0.824153 -0.187191 -0.534538
0.094431 0.045120 0.055704 0.139262 0.906557 -0.398448
0.144805 0.030389 0.053993 0.875113 0.428927 -0.224051
0.034003 -0.017777 0.017625 -0.633622 -0.536174 -0.557710
0.098805 0.002408 0.131707 -0.717770 0.687023 -0.113163
0.149174 0.005521 0.100736 0.788295 -0.442532 0.427501
0.051723 -0.005511 0.001855 0.463108 -0.170952 -0.869659
0.060050 -0.032643 0.036253 -0.242625 -0.943650 -0.225071
0.066782 0.058455 0.056467 0.021105 0.998589 0.048726
0.080783 0.049958 0.015708 -0.135769 0.445421 0.884967
0.023306 0.035246 0.026982 -0.797049 0.512940 -0.318755
0.019504 -0.004904 0.019352 -0.094274 -0.987356 -0.127437
0.044277 0.035602 0.002094 -0.107066 0.035499 -0.993618
