# x y z nx ny nz
0.134328 -0.032535 0.111615 0.977652 -0.159511 0.136943
0.045937 0.024025 -0.005341 -0.060830 0.024235 -0.997854
0.050309 0.056554 0.035395 -0.391580 0.918985 -0.046179
0.051085 0.020669 -0.005130 0.081612 -0.012008 -0.996592
0.067729 0.018604 0.090535 0.128345 0.117182 0.984782
0.021954 0.031653 0.005371 -0.006206 0.869839 -0.493296
0.044755 0.009255 -0.007000 0.029974 -0.109036 -0.993586
0.092086 -0.004059 0.138087 0.258720 0.594705 0.761176
0.070127 0.015067 -0.001450 0.035450 0.017397 -0.999220
0.057804 -0.032213 0.048733 -0.327730 -0.928088 0.176762
0.011822 0.030687 0.011822 -0.561764 0.701348 -0.438785
0.078484 -0.023191 0.141875 0.641111 -0.767383 0.010029
0.099060 0.018170 -0.004917 0.059192 0.482847 -0.873702
0.072502 0.051894 0.001653 -0.325563 0.944090 0.051983
0.133165 0.007992 -0.003984 0.988348 -0.092220 0.121096
0.046850 -0.018768 0.064191 -0.140085 -0.757607 0.637502
0.018913 0.004605 0.062366 -0.926318 -0.182470 0.329604
0.137432 -0.016321 0.115428 0.855504 -0.121621 -0.503310
0.148510 0.023223 0.060848 0.915289 0.358097 0.184423
0.138458 -0.033605 0.125460 0.549920 -0.405477 -0.730190
0.063337 0.047289 -0.004849 -0.095247 0.311605 -0.945426
0.114282 0.003812 0.122510 0.631126 0.165179 0.757889
0.045969 0.020118 -0.006835 -0.505574 0.012404 -0.862694
0.137335 -0.018053 0.116243 0.679023 -0.339426 -0.650936
0.141140 0.053661 0.085392 0.296095 0.862047 -0.411342
0.051981 -0.001189 -0.005283 0.081179 -0.057080 -0.995064
0.131377 -0.024065 0.107049 0.133621 -0.189264 -0.972792
0.048504 0.042814 -0.004720 0.010446 0.053895 -0.998492
0.065501 -0.018171 0.072837 -0.146438 -0.509253 0.848067
0.128688 -0.006618 0.095914 -0.048983 -0.993945 0.098353
0.134257 -0.028521 0.117449 0.960535 -0.205444 -0.187523
0.147922 0.019899 0.070136 0.823537 0.145928 -0.548172
0.015128 -0.003494 0.018538 0.092852 -0.910315 0.403367
0.134737 0.052346 0.074796 0.012729 0.690511 -0.723210
0.132680 0.027270 0.027705 0.531322 0.311972 -0.787636
0.113226 -0.003467 0.088189 -0.311806 -0.827965 0.466102
0.065639 -0.023705 -0.002128 -0.122967 -0.968335 -0.217271
0.090876 -0.001856 0.122871 -0.164865 0.652073 0.740014
0.104611 0.044798 0.046061 -0.437174 0.894526 -0.093283
0.132351 0.035888 0.112765 0.063237 0.505966 0.860232
0.001823 0.023086 0.024180 -0.864477 0.494492 0.090314
0.070550 0.050984 0.003212 -0.287883 0.900601 0.325639
0.024557 0.039492 0.042881 -0.739504 0.672774 0.022536
0.105003 0.038726 0.070948 -0.023022 0.758446 0.651330
0.135462 0.023564 0.028666 0.618502 0.230704 -0.751153
0.093730 -0.013556 0.010363 0.528295 -0.332931 0.781064
0.112458 -0.012827 0.077445 0.202572 -0.770838 0.603964
0.150594 0.036796 0.095917 0.993575 -0.107159 0.036424
0.097747 0.040638 0.065477 0.102537 0.868020 0.485826
0.149691 0.013548 0.099739 0.886562 -0.396715 0.237960
0.027265 0.003040 0.074484 -0.762508 -0.219526 0.608597
0.126426 -0.025567 0.126320 -0.727936 0.228168 0.646566
0.094457 -0.003788 0.137134 0.324880 0.468536 0.821540
0.013554 0.008796 0.002924 -0.590456 -0.069778 -0.804048
0.093032 -0.002942 0.130286 -0.768740 0.595389 -0.233561
0.140544 -0.007966 0.054403 0.738176 -0.673709 0.034826
0.134640 -0.031504 0.110585 0.977652 -0.159511 0.136943
0.044690 0.015672 0.088975 -0.418362 0.018604 0.908090
0.126744 -0.057698 0.140473 -0.046605 -0.433682 0.899860
0.038184 0.032434 0.080605 -0.524023 0.604126 0.600359
0.106015 0.023822 0.087196 -0.873692 0.384244 0.298361
0.068457 -0.000187 0.088406 0.153720 -0.227858 0.961484
0.138198 -0.008890 0.042385 0.728939 -0.599261 -0.330958
0.124315 -0.059352 0.130041 0.288320 -0.938070 -0.192082
0.144805 0.030389 0.046993 0.875113 0.428927 -0.224051
0.064596 0.035353 0.084056 0.012312 0.708584 0.705519
0.053775 0.044769 -0.004907 -0.067915 0.174824 -0.982255
0.123440 0.043725 0.077135 -0.772783 0.478638 -0.416788
0.101432 -0.009342 0.119215 0.317729 -0.861792 -0.395428
0.076817 0.054753 0.025068 0.222614 0.945536 -0.237498
0.053313 0.046883 -0.002876 -0.171569 0.983698 -0.053865
0.025642 0.040030 0.031623 -0.745361 0.657221 -0.111790
0.111158 0.017897 -0.005110 -0.554327 -0.269410 -0.787489
0.128614 -0.011772 0.121970 -0.493133 0.395461 0.774875
0.137251 -0.004040 0.099117 0.436828 -0.898929 0.033287
0.118446 0.018427 0.115489 -0.171632 0.074554 0.982336
0.114890 0.042873 0.063646 -0.114737 0.906962 0.405285
0.047036 -0.010809 -0.005384 -0.057111 -0.001719 -0.998366
0.092114 0.002790 0.085286 -0.351943 -0.120051 0.928291
0.075703 0.051257 0.006325 -0.298289 0.775587 0.556317
0.101572 0.022603 -0.005700 -0.353558 0.392854 -0.848919
0.136203 0.004014 0.114938 0.377737 -0.073233 0.923012
0.137982 0.052308 0.095246 0.037062 0.893417 0.447697
0.137177 -0.039540 0.128281 0.475966 -0.492643 -0.728532
0.008258 0.028077 0.012729 -0.641739 0.574176 -0.508422
0.048918 0.055440 0.028813 -0.476607 0.871260 -0.117270
0.112906 -0.010457 -0.006087 0.140532 -0.704667 -0.695482
0.066188 -0.021826 -0.005559 -0.067997 -0.525012 -0.848374
0.116360 0.000031 0.106779 -0.062525 -0.978663 -0.195729
0.097244 0.037206 0.071882 -0.086181 0.807322 0.583785
0.021017 0.029636 0.059233 -0.855250 0.438917 0.275498
0.128624 -0.018160 0.105549 -0.135907 -0.188794 -0.972567
0.113597 -0.005340 0.009694 0.565425 -0.822021 0.067652
0.106909 -0.014809 -0.006196 0.315683 -0.112156 -0.942213
0.068359 -0.016513 -0.005344 0.081105 0.521466 -0.849409
0.090054 -0.020292 0.015706 0.887581 -0.459994 -0.024598
0.095920 0.041809 0.007736 0.326521 0.732056 0.597895
0.123052 0.040299 -0.005090 0.119437 0.022637 -0.992584
0.151223 0.023330 0.096483 0.964774 0.262602 0.015883
0.118708 0.029985 0.113665 -0.305628 0.270063 0.913048
0.027622 0.042961 0.042865 -0.715978 0.694941 -0.066576
0.130194 0.012007 -0.001796 0.686105 0.660321 0.305346
0.016350 0.002562 0.003491 -0.466914 -0.501043 -0.728662
0.124591 0.027421 0.023361 0.347230 0.435083 -0.830743
0.065822 0.057815 0.051834 -0.122441 0.950481 0.285646
0.087887 0.039682 0.019061 0.727923 0.682376 -0.067024
0.061348 0.020635 -0.002562 0.585117 0.310552 -0.749130
0.109406 0.002423 0.126452 0.584484 0.108448 0.804125
0.121449 0.044304 0.059362 0.195974 0.926643 0.320822
0.127354 -0.055476 0.121194 0.731144 -0.666117 -0.147368
0.052991 -0.015278 -0.005575 0.017615 0.025377 -0.999523
0.090526 0.017871 -0.005537 -0.759745 0.001642 -0.650219
0.145857 0.024473 0.069430 0.903699 0.261466 -0.339063
0.052397 0.054170 0.015984 -0.224607 0.969047 -0.102469
0.074170 -0.015245 -0.002546 0.097370 0.791281 -0.603651
0.056537 0.017666 -0.005420 0.027129 0.066383 -0.997425
0.041103 0.013294 0.087290 -0.503143 -0.024885 0.863845
0.085314 -0.009518 0.143548 0.327797 0.349972 0.877536
0.051338 0.053389 0.013830 -0.274210 0.923843 -0.267062
0.078328 -0.035586 0.024995 0.220863 -0.903297 -0.367796
0.138183 -0.005365 0.087709 0.449372 -0.891193 0.061969
0.044918 -0.028412 0.028493 -0.365119 -0.921717 -0.130861
0.139825 -0.034395 0.127840 0.926530 0.173258 0.333952
0.118413 0.029041 0.022283 0.250877 0.403613 -0.879862
0.000499 0.017198 0.020420 -0.965130 0.133134 -0.225387
0.039161 -0.011174 0.074792 -0.500987 -0.722617 0.476273
0.100059 -0.011611 0.022526 -0.001762 -0.929241 -0.369470
0.127638 0.019756 0.021460 0.417011 0.245878 -0.875012
0.090359 0.017863 -0.005280 -0.819822 -0.195720 -0.538131
0.109801 0.043977 0.035207 -0.052116 0.889432 -0.454087
0.146842 0.024779 0.063752 0.854265 0.372283 0.362816
0.096381 0.000883 0.132226 -0.123992 0.861616 0.492183
0.139752 -0.039737 0.130583 0.978757 0.095446 0.181454
0.141536 0.007017 0.113261 0.424530 -0.330690 0.842863
0.137781 -0.042378 0.135580 0.383033 0.468196 0.796291
0.018771 -0.005235 0.051246 -0.909694 -0.385228 0.155100
0.118436 0.005655 0.118735 0.680959 0.008880 0.732268
0.000067 0.015979 0.023624 -0.999499 0.018256 -0.025861
0.126485 -0.001286 -0.006199 0.045731 -0.026544 -0.998601
0.011210 0.020843 0.032418 0.285341 0.331915 0.899118
0.077367 -0.021311 0.146385 0.315435 -0.349875 0.882093
0.128486 -0.054876 0.128567 0.884414 -0.443548 -0.145180
0.031081 0.043671 0.055542 -0.539104 0.790455 0.290771
0.131983 -0.051101 0.132948 0.742361 -0.533471 -0.405351
0.104943 -0.020569 -0.006154 0.440769 -0.233566 -0.866700
0.098458 -0.013980 0.075527 0.026233 -0.858656 0.511881
0.051930 -0.021069 -0.003800 -0.200882 -0.812510 -0.547242
0.101640 0.022471 0.085706 0.039618 0.504509 0.862497
0.046041 -0.022040 0.003433 -0.310591 -0.885413 -0.345800
0.096022 -0.002291 0.135564 0.376707 0.437078 0.816734
0.139124 -0.045576 0.135061 0.975077 -0.210760 0.069324
0.125151 0.017394 -0.001526 0.587529 0.668325 0.456236
0.108584 0.042133 0.064889 0.269961 0.887029 0.374568
0.099191 0.026589 0.083785 0.072104 0.568538 0.819491
0.065844 -0.030726 0.013739 -0.199699 -0.944988 -0.259070
0.038392 0.048088 0.019581 -0.548376 0.819220 -0.167818
0.130798 0.054333 0.080256 -0.370978 0.927037 -0.054567
0.151941 0.017596 0.107885 0.981195 -0.187838 -0.044412
0.092405 0.039706 0.020581 -0.377335 0.911851 -0.161695
0.066782 0.058455 0.049467 0.021105 0.998589 0.048726
0.092999 0.018643 -0.005786 -0.022682 0.036231 -0.999086
0.060439 -0.025078 0.005087 -0.118869 -0.696723 -0.707423
0.124385 0.039827 0.106906 -0.487630 0.873009 0.008502
0.033426 0.043476 0.059170 -0.412964 0.831444 0.371701
0.112064 -0.012153 0.029129 -0.068279 -0.800565 -0.595343
0.106087 -0.020142 -0.004688 0.924191 -0.379393 0.043957
0.122102 0.006413 0.115473 0.436169 -0.093267 0.895018
0.017218 -0.001101 0.034194 -0.925302 -0.357617 -0.126197
0.099856 0.033679 -0.005456 -0.017412 0.138268 -0.990242
0.107943 0.045210 -0.004674 -0.085617 0.368400 -0.925717
0.111970 0.035423 0.081324 -0.708859 0.685844 -0.164737
0.093883 0.013937 -0.005949 -0.027568 0.026946 -0.999257
0.091400 -0.031474 0.039070 0.768965 -0.636566 0.058957
0.101755 -0.009986 0.081942 -0.043623 -0.843735 0.534984
0.065388 -0.016161 0.074812 0.091559 -0.825895 0.556340
0.035001 -0.021459 0.023576 -0.615988 -0.776832 0.130730
0.115514 0.030460 0.022069 0.336981 0.469041 -0.816360
0.072959 0.046139 -0.004974 0.004874 0.017134 -0.999841
0.124087 -0.019139 0.108971 -0.908768 -0.149579 -0.389574
0.034849 0.011950 0.083397 -0.612272 0.018163 0.790438
0.107882 -0.020385 0.057643 -0.024301 -0.992516 0.119671
0.093356 0.025435 -0.005439 -0.056994 0.053049 -0.996964
0.095186 0.044324 0.044855 -0.287871 0.954862 -0.073267
0.128263 -0.056829 0.140971 -0.046605 -0.433682 0.899860
0.111385 -0.011284 -0.006023 0.480674 -0.642194 -0.597109
0.079339 -0.017624 0.146914 0.095907 0.137772 0.985810
0.093108 0.028257 0.081362 -0.281798 0.579509 0.764696
0.089014 0.018441 -0.003841 -0.711182 -0.016138 -0.702823
0.093002 -0.027935 0.001659 -0.041106 -0.954940 0.293937
0.075720 0.048088 0.059122 0.212942 0.425131 0.879727
0.081737 -0.013428 0.139231 -0.734463 0.675839 -0.061686
0.059497 0.055332 0.014006 -0.360662 0.886739 -0.289165
0.063189 0.043140 -0.004900 -0.014083 0.037323 -0.999204
0.119861 0.024654 0.115200 -0.264913 0.119355 0.956857
0.031378 0.040347 0.062137 -0.565676 0.617649 0.546371
0.041785 0.024495 -0.005035 -0.065869 0.059161 -0.996073
0.021114 0.033544 0.010413 0.073478 0.996261 -0.045434
0.089820 0.020020 -0.004274 -0.674041 0.221575 -0.704679
0.063458 -0.019987 0.069444 -0.239358 -0.934896 0.262064
0.098413 -0.002576 0.134583 0.461180 0.313216 0.830186
0.052198 -0.031635 0.033579 -0.588803 -0.727850 -0.351490
0.070599 0.050987 -0.003907 -0.168757 0.563663 -0.808582
0.124971 0.000063 0.113052 -0.691340 -0.368018 0.621781
0.050777 0.046463 -0.002747 -0.170666 0.982992 -0.067824
0.140399 0.001717 0.034109 0.741020 -0.301631 -0.599923
0.115704 0.027658 -0.005737 0.024890 0.079191 -0.996549
0.063178 0.057072 0.020895 0.147133 0.853467 -0.499946
0.056331 0.004641 -0.005372 0.314638 -0.205575 -0.926683
0.029662 0.022937 0.078123 -0.684987 0.289328 0.668642
0.060463 -0.034104 0.037663 -0.183962 -0.981429 -0.054365
0.080913 0.056341 0.037176 0.323908 0.855376 -0.404246
0.100521 -0.018517 0.067219 0.029114 -0.965364 0.259277
0.050819 0.056142 0.048724 -0.307310 0.902647 0.301311
0.062072 -0.009165 0.082849 0.045426 -0.698925 0.713751
0.019292 0.033660 0.013691 0.110578 0.989393 0.094201
0.136999 -0.008317 0.118200 0.880591 0.187555 0.435182
0.061284 -0.024138 0.058976 -0.080283 -0.350666 0.933053
0.052374 0.013335 0.091420 -0.245850 -0.049787 0.968028
0.136003 -0.051004 0.139160 0.707624 -0.706469 -0.013014
0.100492 -0.009630 0.011774 0.115858 -0.986950 0.111830
0.138013 -0.019188 0.122798 0.866190 0.259860 0.426835
0.004208 0.026002 0.026279 -0.733161 0.614714 0.290863
0.149960 0.022219 0.111195 0.740867 0.171036 0.649510
0.147726 0.042987 0.072390 0.402534 0.151597 -0.902765
0.129803 0.043035 0.057465 0.302370 0.902013 0.308133
0.055238 -0.012413 0.080553 -0.041306 -0.735576 0.676182
0.067648 0.059438 0.033490 0.179164 0.982654 -0.047871
0.102181 -0.012349 0.078430 -0.118942 -0.798384 0.590284
0.038217 0.048750 0.028549 -0.699164 0.662283 -0.269353
0.002690 0.005269 0.025420 -0.889122 -0.416736 0.189193
0.084716 -0.001457 0.121145 -0.123829 0.565100 0.815676
0.017902 0.029358 0.044539 -0.894211 0.447526 -0.010358
0.138361 -0.023564 0.120683 0.718781 -0.252837 -0.647632
0.108851 -0.000063 0.106807 -0.084552 -0.693286 -0.715686
0.140229 0.037889 0.069307 0.317819 0.051626 -0.946745
0.120046 -0.018489 0.055028 0.530793 -0.845178 0.062722
0.035752 -0.023265 0.029450 -0.633543 -0.767691 -0.096301
0.052124 -0.017732 0.071853 -0.312260 -0.915705 0.252939
0.029184 0.044064 0.047885 -0.359029 0.928497 -0.094825
0.099791 -0.007134 0.114792 0.047142 -0.795797 -0.603726
0.095900 -0.000637 0.134475 0.061552 0.708698 0.702822
0.052500 0.015013 -0.006133 0.381467 -0.011437 -0.924312
0.097053 -0.011012 0.009621 0.163476 -0.319090 0.933519
0.134267 0.054756 0.083142 -0.001183 0.997413 0.071874
0.075270 0.058516 0.041775 0.258928 0.960759 -0.099496
0.106126 0.016542 0.091692 -0.832976 0.018475 0.553000
0.107879 0.046089 0.046518 -0.367090 0.929752 0.028391
0.084294 0.013034 0.086813 0.290482 0.100793 0.951557
0.106021 0.046096 -0.002352 -0.292533 0.955354 0.041508
0.036774 0.027092 0.082854 -0.591881 0.349563 0.726280
0.135800 -0.050234 0.136845 0.403029 -0.703363 -0.585532
0.129184 0.014110 -0.004554 0.540835 0.520661 -0.660613
0.066634 -0.028411 0.007585 -0.048640 -0.876031 -0.479796
0.134080 -0.051672 0.140418 0.316452 0.083268 0.944947
0.090727 0.017416 -0.005606 -0.511851 -0.107827 -0.852280
0.067708 0.050146 0.002876 -0.315227 0.878214 0.359684
0.037393 0.007779 -0.005202 0.001686 -0.017292 -0.999849
0.130701 0.043496 0.051949 0.221098 0.974762 0.030895
0.055371 0.027228 -0.002617 0.445926 0.500115 -0.742317
0.104462 -0.017589 -0.006200 0.011097 -0.008330 -0.999904
0.052529 0.052575 0.010762 -0.349178 0.795853 -0.494665
0.113725 -0.010316 -0.006064 0.140532 -0.704667 -0.695482
0.039714 0.039285 0.071344 -0.279342 0.830326 0.482210
0.138714 -0.021937 0.121936 0.978725 0.170285 0.114458
0.071799 0.044204 0.069470 0.116481 0.954524 0.274437
0.051822 0.026395 -0.005076 0.367620 0.243972 -0.897404
0.116585 0.038218 0.027805 0.225449 0.692327 -0.685461
0.124037 -0.059789 0.133918 0.274155 -0.960575 0.046208
0.129761 0.053793 0.083768 -0.240065 0.878328 0.413411
0.091077 -0.026881 -0.006272 -0.086863 -0.223075 -0.970923
0.068675 -0.023791 -0.003578 -0.173083 -0.885627 -0.430938
0.124560 0.003256 0.021275 0.244591 -0.246181 -0.937854
0.128326 0.014128 -0.005050 0.468334 0.382929 -0.796259
0.072635 0.035717 0.082312 0.165753 0.696446 0.698204
0.020737 -0.007106 0.027131 -0.861955 -0.425401 -0.275801
0.136282 -0.023440 0.127456 0.585448 0.356797 0.727974
0.131901 0.041417 0.041540 0.535066 0.773284 -0.340201
0.135354 -0.024061 0.112832 0.939228 -0.120635 0.321399
0.039852 -0.021249 0.055393 -0.394815 -0.856284 0.333016
0.047494 0.047688 0.062842 -0.094906 0.822366 0.560988
0.051513 0.016856 -0.005840 0.231354 0.334046 -0.913722
0.120556 0.035001 0.112082 -0.362348 0.724178 0.586746
0.126785 -0.036924 0.112046 -0.693538 -0.300895 -0.654574
0.029069 0.043689 0.035449 -0.641163 0.731107 -0.233221
0.049530 -0.017686 -0.005184 -0.161792 -0.252601 -0.953948
0.092371 0.016074 -0.005863 -0.024003 0.035049 -0.999097
0.114649 0.023613 0.005840 0.615257 -0.349774 0.706482
0.002163 0.012972 0.030399 -0.788024 -0.240667 0.566654
0.106523 0.043022 0.031546 0.364245 0.857199 -0.364054
0.023775 0.033875 0.059450 -0.754728 0.561810 0.338756
0.048593 0.055991 0.038454 -0.244237 0.960114 0.136121
0.150007 0.015448 0.059242 0.998603 -0.032258 0.041846
0.037616 -0.023376 0.045465 -0.492661 -0.858746 0.140856
0.019504 -0.004904 0.012352 -0.094274 -0.987356 -0.127437
0.030052 0.024718 -0.002052 -0.198896 0.368428 -0.908130
0.030182 0.038027 0.011165 -0.698856 0.598396 -0.391818
0.109539 0.043234 0.005907 -0.149596 0.718180 0.679588
0.092680 0.022121 -0.005594 -0.139779 0.049556 -0.988942
0.121018 0.032487 0.005955 0.504422 -0.246304 0.827583
0.144678 -0.002885 0.049445 0.832340 -0.527933 -0.168807
0.124452 -0.017374 0.044746 0.277246 -0.960596 0.019744
0.092829 -0.025408 0.005678 0.188084 -0.604928 0.773748
0.114364 0.022024 -0.006056 0.034019 0.045159 -0.998400
0.088851 -0.023836 0.018073 0.743286 -0.653527 -0.142927
0.015863 0.004292 0.051711 -0.988276 -0.118664 0.096067
0.087631 0.042910 0.029494 0.813632 0.489261 -0.314047
0.126268 0.043829 0.057147 0.222333 0.963725 0.147657
0.100560 -0.013763 0.027088 -0.160574 -0.910096 -0.382021
0.103872 0.043770 0.058117 -0.253081 0.961312 0.108760
0.016911 -0.004367 0.010293 -0.403631 -0.866749 -0.292964
0.071495 -0.023111 -0.005188 -0.143070 -0.643087 -0.752310
0.013392 -0.000235 0.007662 -0.527431 -0.543707 -0.652839
0.085039 -0.001808 0.121438 -0.123829 0.565100 0.815676
0.124456 0.046159 0.050445 0.294929 0.955239 -0.023153
0.085484 0.024426 0.083702 0.328585 0.357481 0.874208
0.126043 -0.057165 0.124286 0.503209 -0.834977 -0.222697
0.031574 0.046014 0.040969 -0.628161 0.767778 0.126215
0.121005 0.043939 0.037359 0.241196 0.881862 -0.405148
0.095450 -0.005829 0.113821 -0.178761 -0.543217 -0.820341
0.132629 0.006793 -0.005016 0.781190 -0.079155 -0.619255
0.119827 0.002336 0.115371 0.582711 -0.644789 0.494666
0.118287 0.027783 0.114191 -0.315120 0.270500 0.909686
0.141331 0.053987 0.089724 0.306374 0.942064 0.136568
0.148859 0.010314 0.046759 0.932202 -0.020130 -0.361378
0.060146 0.054143 0.010781 -0.024567 0.811265 -0.584162
0.112342 -0.016856 0.069781 0.142446 -0.948838 0.281807
0.005149 0.006182 0.011302 -0.747111 -0.280476 -0.602627
0.128418 -0.053377 0.119545 0.811994 -0.543398 -0.213037
0.081009 -0.014061 0.145976 -0.614892 0.630348 0.473887
0.117597 0.013923 0.115922 -0.166811 0.454944 0.874757
0.125753 0.031452 0.000712 0.887311 -0.160751 0.432248
0.108267 -0.000367 -0.006232 -0.019558 0.003020 -0.999804
0.073969 0.058428 0.047994 0.018973 0.992555 0.120314
0.015619 -0.001410 0.022085 0.092501 -0.832910 0.545622
0.094903 0.045632 -0.004854 0.113062 0.079343 -0.990415
0.050406 0.046335 -0.003669 -0.187150 0.822055 -0.537773
0.110435 -0.007564 0.014317 0.454909 -0.840992 -0.292901
0.068576 -0.017061 0.073676 0.113012 -0.690444 0.714504
0.018736 -0.004200 0.016284 0.009192 -0.918599 0.395084
0.032860 0.021061 -0.004125 -0.237525 0.191642 -0.952289
0.095570 0.018927 -0.005833 0.039516 -0.015909 -0.999092
0.088917 -0.008461 0.141180 0.534235 0.071353 0.842320
0.070849 0.050836 0.003887 -0.287883 0.900601 0.325639
0.033637 -0.020076 0.019669 -0.754596 -0.622151 -0.208599
0.126554 -0.016771 0.049152 0.384811 -0.914383 0.125797
0.094931 -0.011100 0.078082 -0.155496 -0.720210 0.676105
0.088544 -0.010760 0.141668 0.574552 -0.067131 0.815710
0.126674 -0.016006 0.054812 0.350032 -0.932045 0.093641
0.134113 -0.052461 0.140471 0.594915 -0.423922 0.682910
0.076685 -0.008284 0.122977 -0.665302 0.744835 -0.050929
0.150077 0.044201 0.074726 0.582543 0.429719 -0.689917
0.108222 0.030524 0.081291 -0.641353 0.723150 0.256359
0.089182 0.018562 -0.004015 -0.711182 -0.016138 -0.702823
0.126285 -0.012825 0.033114 0.455650 -0.633386 -0.625464
0.019820 -0.003119 0.023653 -0.857040 -0.446629 -0.256914
0.067655 0.041000 0.076698 0.052026 0.885085 0.462512
0.137316 -0.049708 0.138418 0.824378 -0.356793 0.439432
0.153598 0.014449 0.077896 0.971970 -0.140373 -0.188601
0.102924 0.045147 -0.003051 -0.339279 0.939460 -0.048013
0.130061 0.011399 -0.005407 0.184463 0.166256 -0.968676
0.057263 0.054636 0.012705 -0.110809 0.918233 -0.380223
0.058519 0.047773 -0.003976 -0.199268 0.820493 -0.535801
0.101467 -0.001048 0.132368 0.433347 0.318794 0.842959
0.001291 0.009505 0.026978 -0.917495 -0.272293 0.289932
0.130193 0.015267 0.116213 -0.008584 -0.036069 0.999312
0.015056 0.015150 0.046972 -0.993988 0.070070 0.084137
0.115918 0.002221 0.120463 0.756806 -0.468252 0.456054
0.030680 0.017271 -0.004316 -0.250356 0.127714 -0.959693
0.063371 -0.034899 0.046024 -0.252234 -0.950286 0.182576
0.092922 0.010791 -0.005183 -0.459170 0.040366 -0.887431
0.132393 0.008484 -0.001331 0.969362 0.145742 0.197727
0.117305 0.024165 0.114541 -0.420115 0.098738 0.902083
0.029668 0.021490 -0.003163 -0.301845 0.251387 -0.919616
0.003649 0.023372 0.029177 -0.648854 0.572369 0.501381
0.065204 -0.020931 0.066629 -0.115406 -0.974916 0.190318
0.063460 0.055140 0.012993 0.144309 0.945586 -0.291619
0.105129 0.007812 0.121004 -0.546441 0.834489 0.070920
0.062744 -0.021591 -0.005369 -0.059646 -0.461800 -0.884976
0.138314 0.038409 0.045393 0.713130 0.662965 -0.227865
0.129318 -0.032507 0.130887 -0.389510 0.267018 0.881466
0.060234 0.058324 0.047478 0.026076 0.988554 0.148596
0.118209 0.047257 -0.004065 0.174378 0.722653 -0.668853
0.055941 0.030958 0.087354 -0.075599 0.571492 0.817118
0.104850 0.045786 -0.003474 -0.297261 0.868399 -0.396887
0.119275 0.027542 0.114605 -0.295682 0.211666 0.931542
0.079076 0.051275 0.056084 0.398980 0.423349 0.813382
0.132715 0.001409 0.027004 0.611316 -0.348128 -0.710703
0.151978 0.018794 0.108554 0.950633 0.019926 0.309678
0.134639 0.041341 0.054708 0.646984 0.751308 0.130183
0.017233 -0.004612 0.015275 -0.022042 -0.995441 0.092802
0.105546 -0.018651 -0.006179 0.384408 -0.124614 -0.914714
0.060921 0.047931 0.060726 -0.072102 0.347485 0.934909
0.021567 0.005469 -0.000729 -0.445110 -0.146736 -0.883372
0.062080 -0.031054 0.017254 -0.268989 -0.909236 -0.317704
0.127326 -0.044645 0.133563 -0.586873 0.319442 0.744001
0.062639 -0.014477 -0.003952 0.130647 0.774406 -0.619053
0.080093 -0.020756 0.133298 0.499463 -0.779045 -0.378981
0.093890 -0.002541 0.136595 0.182225 0.608367 0.772453
0.059123 0.054270 0.011181 -0.321968 0.894268 -0.310839
0.049820 0.049173 0.060206 0.008831 0.951710 0.306870
0.107780 0.007934 0.122293 -0.201031 0.883705 0.422673
0.137365 -0.005174 0.116129 0.908728 0.152121 0.388681
0.124360 0.042126 0.092862 -0.611367 0.689359 0.388606
0.152001 0.023602 0.106601 0.941619 0.277625 0.190466
0.135271 -0.011795 0.057070 0.556695 -0.807264 0.195999
0.036161 0.049675 0.042531 -0.608138 0.789061 0.086895
0.073611 -0.026512 0.143252 0.102455 -0.881874 0.460218
0.076437 -0.022592 0.060094 0.031213 -0.905731 0.422702
0.104938 0.011307 0.090461 -0.551884 -0.211317 0.806702
0.074218 -0.025280 -0.000217 -0.223543 -0.960804 -0.163966
0.147669 0.031677 0.073152 0.460202 -0.210445 -0.862512
0.143615 0.041148 0.070556 0.215120 0.193024 -0.957322
0.132288 0.041189 0.059729 0.441924 0.842535 0.307958
0.130797 0.011166 -0.005088 0.621929 0.366887 -0.691808
0.040713 0.030570 -0.004574 -0.367676 0.099263 -0.924641
0.095176 -0.010931 0.119547 0.099909 -0.848454 -0.519754
0.136792 -0.013172 0.109581 0.972881 -0.111599 -0.202603
0.050087 0.044319 -0.004731 -0.077782 0.235444 -0.968770
0.134059 0.008763 0.115615 0.095243 0.002780 0.995450
0.147197 0.026663 0.060406 0.898688 0.427412 0.098381
0.077524 0.058583 0.045346 -0.143304 0.977935 0.152011
0.137485 -0.021209 0.118385 0.702621 -0.360755 -0.613335
0.052603 0.044399 -0.004821 -0.031285 -0.130107 -0.991006
0.121946 0.043622 -0.005109 0.330145 0.389790 -0.859691
0.132218 0.023354 0.025573 0.659946 0.313892 -0.682600
0.100135 -0.005795 0.085133 -0.198897 -0.580530 0.789572
0.127619 -0.057996 0.139056 0.268829 -0.927608 0.259373
0.116061 0.028069 0.112115 -0.895379 0.273528 0.351394
0.132037 -0.054655 0.139193 0.644806 -0.763839 -0.027849
0.132323 -0.012341 0.123516 -0.062324 0.398438 0.915075
0.042935 0.041243 -0.003957 -0.446503 0.257795 -0.856841
0.128958 0.014617 -0.004174 0.714687 0.684023 -0.146064
0.130260 -0.015131 0.049970 0.369111 -0.921608 0.119987
0.137543 -0.048424 0.137991 0.662650 0.127681 0.737965
0.115893 0.017493 -0.006298 0.171421 0.174797 -0.969567
0.052914 0.022644 -0.005192 -0.171645 0.029829 -0.984707
0.151231 0.033465 0.092293 0.957390 0.067344 0.280836
0.050089 0.053744 0.017235 -0.236947 0.963660 -0.123351
0.099265 -0.006262 0.134659 0.560438 -0.017209 0.828017
0.067039 -0.017787 0.073183 0.066795 -0.691662 0.719126
0.045255 0.055038 0.038892 -0.278614 0.951687 0.129093
0.045707 -0.020269 0.062052 -0.031346 -0.936859 0.348301
0.082209 -0.025828 -0.005329 -0.096183 -0.459582 -0.882912
0.132416 -0.053785 0.141128 0.447094 -0.380943 0.809314
0.126853 0.000829 0.003615 0.415291 -0.428331 0.802537
0.138217 -0.022172 0.124273 0.875688 0.260714 0.406447
0.027867 -0.016188 0.051234 -0.608094 -0.735521 0.298715
0.130657 0.006632 -0.005647 0.202818 0.064846 -0.977067
0.152539 0.039444 0.087207 0.939158 0.105313 0.326943
0.111615 0.034369 0.078287 -0.559067 0.828093 -0.041300
0.089509 -0.016629 0.071054 0.005879 -0.895360 0.445304
0.039508 0.047423 0.059227 -0.376320 0.858811 0.347602
0.071517 -0.027853 0.139637 -0.094387 -0.966978 0.236736
0.122540 0.036658 0.111201 -0.262694 0.712646 0.650483
0.128692 -0.053284 0.122603 0.862932 -0.505304 -0.003920
0.040861 0.041031 -0.002940 -0.485000 0.383678 -0.785854
0.042444 0.049012 0.056089 -0.151755 0.963778 0.219323
0.081886 -0.018218 0.070986 0.070722 -0.849301 0.523150
0.048896 -0.022294 0.002106 -0.068835 -0.904748 -0.420349
0.149780 0.008155 0.074292 0.768254 -0.382924 -0.512986
0.059905 0.032481 -0.000624 -0.034701 0.061933 -0.997477
0.116566 0.020052 -0.006071 0.034019 0.045159 -0.998400
0.067436 0.010105 -0.001380 0.020509 -0.049312 -0.998573
0.044858 -0.015618 0.070416 -0.348884 -0.883583 0.312349
0.074208 0.051112 -0.004552 -0.118211 0.411127 -0.903881
0.042834 -0.025454 0.048952 -0.494562 -0.802648 0.333414
0.013256 0.002677 0.027837 0.048202 -0.772886 0.632711
0.055025 -0.012651 -0.004576 0.234064 0.617419 -0.751005
0.019624 0.033016 0.008525 -0.128781 0.884429 -0.448555
0.125438 -0.010954 0.072878 0.453640 -0.797490 0.397770
0.046999 -0.023923 0.006944 -0.302138 -0.840388 -0.449957
0.122777 -0.017610 0.115812 -0.997243 0.065724 0.034451
0.073541 0.052198 0.013083 0.346410 0.865398 -0.362059
0.127038 0.033380 -0.004305 0.852558 -0.069870 -0.517941
0.113746 -0.009618 0.026368 0.184518 -0.699582 -0.690318
0.123540 0.010466 0.019583 0.305651 -0.106119 -0.946211
0.094883 0.008514 -0.005510 -0.368174 -0.222296 -0.902791
0.042355 0.049760 0.016465 -0.332742 0.923995 -0.188455
0.145009 0.024792 0.041384 0.894018 0.182093 -0.409357
0.006893 0.003173 0.011190 -0.687320 -0.498326 -0.528453
0.085286 0.033154 -0.001204 -0.075383 0.064927 -0.995039
0.073228 0.040825 0.075514 0.141118 0.868510 0.475160
0.112604 0.017547 0.007760 0.764742 0.408556 0.498249
0.130069 -0.002593 -0.004909 0.855125 -0.460321 -0.238466
0.139585 -0.004076 0.091320 0.528818 -0.835808 0.147566
0.112864 0.005623 0.122745 0.567972 0.348305 0.745715
0.024355 0.038628 0.029344 -0.800008 0.599057 0.033436
0.075882 -0.023457 0.133639 0.440191 -0.743836 -0.502931
0.137208 -0.036127 0.132240 0.421299 0.459981 0.781617
0.103434 -0.004711 0.111883 0.047142 -0.795797 -0.603726
0.081524 -0.019777 0.142342 0.705800 -0.640230 0.303234
0.132483 -0.039504 0.116311 0.975524 -0.172223 0.136721
0.124901 -0.006946 0.103239 -0.491367 -0.272452 -0.827242
0.059998 0.057978 0.027486 -0.171843 0.985097 0.007384
0.134285 -0.033713 0.110708 0.972882 -0.217809 -0.077847
0.100637 -0.019649 0.043983 0.229683 -0.923208 -0.308111
0.106420 0.009131 0.116752 -0.610956 0.765341 0.202450
0.111150 0.046466 0.049728 -0.005204 0.951643 0.307163
0.033913 0.012943 -0.005091 -0.102644 0.051231 -0.993398
0.066562 -0.019689 0.070660 -0.080357 -0.837096 0.541122
0.127642 0.015267 -0.004905 0.513289 0.465685 -0.720883
0.128135 -0.007001 0.101469 0.009644 -0.719360 -0.694571
0.141870 -0.000949 0.097291 0.661082 -0.684641 0.306980
0.133765 0.054527 0.078769 -0.104766 0.986873 -0.122902
0.115535 0.017750 0.005330 0.490333 0.465572 0.736760
0.109375 0.024537 -0.006113 0.034019 0.045160 -0.998400
0.056651 0.049641 0.006225 -0.003474 0.550767 -0.834652
0.122125 0.046358 0.048249 0.091427 0.989606 -0.110998
0.007064 0.000814 0.014330 -0.640088 -0.712530 -0.287381
0.117692 -0.002433 0.099424 -0.489272 -0.828774 0.271563
0.091859 0.046085 0.056551 0.182526 0.981951 -0.049555
0.078281 0.052912 0.005055 -0.306605 0.884589 0.351419
0.128318 0.014746 -0.002448 0.736074 0.639838 0.220913
0.123797 -0.059826 0.131577 0.288320 -0.938070 -0.192082
0.042494 0.035464 -0.004579 -0.233752 0.061727 -0.970335
0.125346 -0.006090 -0.003206 0.342976 -0.900215 0.268293
0.109729 0.037722 -0.005303 -0.011932 0.019351 -0.999742
0.127478 -0.015003 0.104819 -0.171849 -0.294518 -0.940068
0.119611 0.020321 -0.005938 0.055550 0.020779 -0.998240
0.127191 -0.007110 0.088923 -0.057140 -0.995502 0.075565
0.019033 -0.003605 0.017562 0.045075 -0.893331 0.447132
0.109395 0.046737 -0.003981 -0.181753 0.521900 -0.833418
0.067990 -0.021217 0.065882 -0.022964 -0.975974 0.216676
0.069126 -0.006249 0.085523 0.101881 -0.536329 0.837837
0.072963 -0.031715 0.054966 0.084009 -0.573171 0.815118
0.107360 0.045956 0.000397 -0.264079 0.916102 0.301695
0.053041 -0.031125 0.046825 -0.379511 -0.922071 0.075868
0.059410 0.058775 0.042430 -0.157712 0.983217 -0.091711
0.074225 -0.012422 0.078928 0.044387 -0.777828 0.626907
0.095948 0.023091 -0.005694 0.308408 0.014714 -0.951140
0.008833 0.025299 0.029958 -0.110130 0.640721 0.759834
0.130469 -0.013102 0.123637 -0.309360 0.444066 0.840893
0.003163 0.004995 0.018095 -0.857753 -0.456212 -0.236919
0.132752 0.039061 0.037738 0.584972 0.671479 -0.454888
0.051666 0.053850 0.015185 -0.281767 0.928156 -0.243176
0.077502 0.055435 0.028518 0.219326 0.948775 -0.227427
0.111635 0.042602 0.063675 -0.089286 0.859067 0.504015
0.093142 0.051601 -0.003377 0.356372 0.423858 -0.832672
0.016096 0.017519 0.001377 -0.494182 0.154429 -0.855533
0.015359 0.033583 0.016352 -0.121466 0.991762 0.040670
0.125866 -0.058188 0.140148 -0.297365 -0.751934 0.588361
0.147505 0.000379 0.085442 0.809718 -0.586313 0.024376
0.148573 0.016324 0.064584 0.959934 0.006538 0.280149
0.104652 0.023051 -0.006352 0.169842 -0.430184 -0.886620
0.136303 -0.017256 0.124395 0.521763 0.380999 0.763284
0.122939 0.028974 0.115004 -0.132255 0.218321 0.966874
0.069030 0.051698 0.009607 0.138819 0.700637 -0.699883
0.136521 0.035008 0.036666 0.650978 0.569797 -0.501557
0.103042 0.042816 -0.004988 -0.061394 0.276836 -0.958954
0.044557 0.045459 0.003030 -0.371505 0.923603 -0.094558
0.074535 -0.011545 0.125504 -0.633322 0.668130 0.390521
0.120638 0.045519 0.043391 0.003043 0.973423 -0.228994
0.091641 -0.007307 0.139405 0.485669 0.168395 0.857770
0.133327 -0.046774 0.130879 0.806041 -0.416921 -0.420090
0.061784 0.048535 0.002161 -0.252560 0.955872 0.150075
0.104806 0.032045 0.078486 0.090434 0.672945 0.734144
0.137902 -0.011836 0.116556 0.971372 -0.091546 -0.219217
0.079905 -0.020021 -0.005932 0.014137 0.174742 -0.984513
0.120592 0.015265 0.115936 -0.062112 -0.022727 0.997810
0.048155 0.044030 -0.004608 -0.230537 0.374606 -0.898066
0.135378 -0.002270 0.117156 0.618449 0.372017 0.692187
0.133902 -0.034634 0.112154 0.974817 -0.158401 0.156973
0.129536 -0.002267 -0.005769 0.473591 -0.262597 -0.840687
0.127526 -0.055795 0.125971 0.878716 -0.446380 -0.169127
0.132220 0.053200 0.088308 -0.447540 0.845354 0.291693
0.002493 0.020269 0.014515 -0.882605 0.171725 -0.437628
0.142457 0.017605 0.114658 0.325139 -0.041908 0.944737
0.091918 -0.015198 0.073632 0.109352 -0.740800 0.662765
0.131270 -0.045554 0.121427 0.967027 -0.237121 -0.092910
0.064055 0.045480 0.065808 -0.073831 0.996106 0.048193
0.062684 -0.022377 0.060229 -0.040060 -0.762945 0.645221
0.041263 -0.016217 0.065828 -0.183395 -0.867647 0.462120
0.043325 0.036242 0.079069 -0.213233 0.858954 0.465542
0.093065 -0.027937 0.041202 0.916463 -0.400069 0.006305
0.131404 0.010941 -0.004663 0.621929 0.366887 -0.691808
0.043399 -0.020359 0.002565 -0.523479 -0.733939 -0.432785
0.037897 -0.023767 0.016409 -0.592516 -0.794906 -0.130574
0.151224 0.027067 0.101510 0.936469 0.097456 -0.336938
0.069292 0.050883 -0.000357 -0.310211 0.948447 -0.064943
0.127407 -0.057155 0.131341 0.711784 -0.696992 -0.086983
0.152955 0.026582 0.077978 0.819290 0.288026 -0.495787
0.108265 0.019122 0.094730 -0.847739 0.155504 0.507106
0.093537 -0.019231 0.008699 0.366214 -0.258367 0.893943
0.152068 0.020725 0.107542 0.999336 -0.002373 0.036370
0.093560 -0.013209 -0.001827 -0.215146 0.224466 -0.950435
0.049197 -0.030009 0.037904 -0.439006 -0.897761 -0.036030
0.148992 0.002925 0.080498 0.851884 -0.520436 -0.058652
0.119211 -0.005215 0.089687 -0.292021 -0.954205 0.064929
0.114525 -0.005156 0.017770 0.863546 -0.500961 -0.057671
0.049463 0.041981 0.069425 0.083251 0.891906 0.444493
0.137301 -0.007561 0.038597 0.691263 -0.612710 -0.383069
0.105160 -0.002036 0.109177 -0.082635 -0.700651 -0.708703
0.129907 -0.049564 0.115826 0.791311 -0.565870 -0.231557
0.130583 0.009578 0.001074 0.634300 0.536795 0.556340
0.009531 -0.001014 0.013165 -0.662261 -0.697473 -0.273755
0.093681 0.021520 0.085318 -0.256813 0.463855 0.847871
0.075858 0.053764 0.055812 0.312135 0.586577 0.747328
0.099316 0.041061 -0.005201 -0.087316 0.284515 -0.954687
0.098599 0.017370 -0.005390 -0.093225 -0.021346 -0.995416
0.137595 0.046659 0.103478 0.131419 0.752787 0.645012
0.047282 -0.019773 -0.002918 -0.493390 -0.787017 -0.370365
0.112760 0.045860 0.040907 -0.124945 0.947656 -0.293830
0.105617 0.018958 -0.005131 -0.441823 -0.303206 -0.844310
0.046890 0.040490 0.072436 -0.028861 0.866942 0.497573
0.123118 -0.012671 0.113057 -0.995067 0.091976 0.037181
0.087180 -0.025109 -0.006332 -0.079170 -0.207129 -0.975105
0.150327 0.033527 0.098249 0.993551 -0.049438 -0.102039
0.152176 0.036445 0.075724 0.797625 -0.146769 -0.585025
0.033325 -0.020861 0.028929 -0.653305 -0.713876 -0.252138
0.139893 0.011314 0.114758 0.304958 -0.171700 0.936760
0.127189 0.039897 0.070778 -0.269944 0.946206 -0.178394
0.018970 -0.006525 0.044012 -0.893541 -0.427922 -0.135895
0.118607 0.039394 0.090410 -0.525289 0.766186 0.370176
0.095802 0.015356 0.087174 -0.245298 0.146746 0.958277
0.131646 0.008155 -0.005180 0.381999 0.166002 -0.909132
0.112584 0.016234 0.009744 0.774030 0.555257 0.304248
0.018312 0.022247 0.001347 -0.440285 0.291497 -0.849223
0.098781 0.006653 -0.006180 -0.003160 0.057333 -0.998350
0.116837 0.014216 0.006721 0.491552 0.469687 0.733328
0.128510 -0.053523 0.120267 0.834286 -0.540181 -0.110327
0.114451 0.016386 0.006922 0.487660 0.470284 0.735542
0.133399 -0.037131 0.112827 0.975638 -0.162500 0.147392
0.112729 0.019609 0.006244 0.862374 0.052557 0.503537
0.106372 -0.013786 0.000981 0.854122 -0.346074 0.388211
0.081851 -0.004572 0.083301 0.124849 -0.371080 0.920170
0.079295 -0.031632 0.016357 0.189989 -0.890992 -0.412356
0.073389 -0.024321 0.058696 0.178216 -0.377134 0.908851
0.066458 0.037966 0.081318 0.050609 0.782157 0.621022
0.153786 0.022331 0.090549 0.946892 0.111981 0.301424
0.015235 0.005337 0.045862 -0.992938 -0.107002 0.051228
0.115692 0.016840 -0.006425 0.018989 -0.154432 -0.987821
0.130865 -0.054941 0.141134 0.263905 -0.349152 0.899137
0.011685 -0.001862 0.011379 -0.594839 -0.630323 -0.498858
0.110248 0.033400 -0.005402 -0.012295 0.022792 -0.999665
0.115928 0.037495 0.008795 0.153117 0.096497 0.983485
0.144127 0.032282 0.071056 0.504733 0.024343 -0.862932
0.105930 0.027452 -0.006090 0.032386 0.107280 -0.993701
0.124219 -0.033742 0.114139 -0.918053 -0.227027 -0.325020
0.122054 0.018152 0.000904 0.485799 0.621633 0.614469
0.083701 0.056333 0.044676 0.590306 0.786437 0.181813
0.100590 0.044614 0.048631 0.290993 0.955498 0.048432
0.135039 -0.013198 0.048272 0.437430 -0.896880 0.065272
0.090340 0.001476 0.120311 -0.203295 0.535526 0.819685
0.047547 0.039971 -0.004881 0.010051 0.052384 -0.998576
0.069177 0.056269 0.019465 -0.000605 0.894914 -0.446238
0.046694 0.054802 0.042402 -0.276162 0.933369 0.229255
0.144347 0.048915 0.075208 0.158725 0.828339 -0.537272
0.038413 0.003380 0.084456 -0.577038 -0.237090 0.781547
0.132124 -0.014757 0.044836 0.384384 -0.915249 -0.120701
0.016811 -0.000465 0.050343 -0.951552 -0.265961 0.154319
0.054554 -0.030537 0.023358 -0.342157 -0.913793 -0.218886
0.094848 -0.001641 0.124712 -0.469764 0.800435 0.372325
0.053456 0.002660 0.090045 -0.168282 -0.230356 0.958445
0.054066 -0.029076 0.015503 0.107191 -0.986087 -0.127052
0.013699 0.005770 0.033077 -0.763135 -0.646219 0.005129
0.091043 0.041687 0.010926 0.327778 0.368462 0.869941
0.028749 0.043880 0.040355 -0.715978 0.694941 -0.066578
0.060810 0.045299 0.064235 -0.245989 0.964036 0.100614
0.060947 0.018475 0.091312 0.030054 0.116752 0.992706
0.107772 0.044256 0.036937 -0.283042 0.943213 -0.173889
0.131266 -0.045726 0.116873 0.964679 -0.254079 0.069562
0.138007 -0.018088 0.117040 0.702487 -0.380454 -0.601470
0.051360 0.008251 0.090869 -0.240307 -0.059478 0.968873
0.106371 0.045500 -0.004192 -0.242604 0.607961 -0.755994
0.040617 -0.025522 0.020821 -0.323320 -0.939968 -0.109197
0.074580 -0.024927 -0.002382 -0.217074 -0.950872 -0.220729
0.144261 0.028601 0.041446 0.866089 0.324891 -0.379917
0.065338 0.058128 0.028349 -0.060152 0.984157 -0.166786
0.126299 -0.016533 0.040914 0.326369 -0.914588 -0.238772
0.031283 -0.013999 0.011621 -0.760539 -0.475457 -0.442178
0.076851 -0.021473 0.146505 -0.329688 -0.099625 0.938819
0.095547 0.016079 -0.005930 0.323340 0.011586 -0.946212
0.092367 0.036711 -0.003985 -0.018108 -0.647888 -0.761520
0.111339 -0.017522 0.037796 -0.099284 -0.891922 -0.441154
0.125838 -0.032692 0.127827 -0.796316 0.158919 0.583632
0.094629 -0.019199 0.065457 0.130694 -0.944789 0.300488
0.031928 0.044529 0.054780 -0.442627 0.840525 0.312408
0.008636 0.004253 0.008337 -0.662965 -0.376697 -0.646975
0.093551 -0.028188 -0.006158 -0.182131 -0.623629 -0.760207
0.095105 -0.010672 0.010507 0.417987 -0.372321 0.828652
0.120115 0.028696 -0.005634 0.015397 0.023920 -0.999595
0.066946 0.054748 0.014297 0.234733 0.918056 -0.319489
0.066526 0.048140 -0.004888 -0.081934 0.296579 -0.951487
0.115037 0.000112 0.102926 -0.592517 -0.805558 0.000613
0.023392 0.033160 0.009493 0.171522 0.981084 -0.089752
0.094210 0.002800 0.120081 -0.025018 0.427493 0.903673
0.069891 0.053267 0.012697 0.269124 0.856742 -0.439961
0.104777 0.015314 0.089884 -0.755006 0.062804 0.652703
0.145597 0.017973 0.038561 0.880012 0.237002 -0.411592
0.148441 0.010173 0.071406 0.706539 -0.230211 -0.669182
0.135187 -0.014637 0.107884 0.798855 -0.147492 -0.583161
0.052087 -0.009818 -0.003819 0.536963 0.381491 -0.752419
0.084032 0.051408 0.008125 0.179559 0.625625 0.759178
0.013326 0.032551 0.019746 -0.358624 0.926640 0.112815
0.085666 -0.029029 0.019118 0.516606 -0.784807 -0.342339
0.108240 -0.009243 0.016877 0.235026 -0.912024 -0.336118
0.053497 0.053745 0.012852 -0.269160 0.924812 -0.268841
0.109816 0.025095 0.094461 -0.765840 0.309561 0.563615
0.120612 0.023929 0.020577 0.262235 0.376444 -0.888551
0.040856 -0.025527 0.016635 -0.348038 -0.936196 0.049068
0.025519 0.038788 0.021101 -0.778099 0.557680 -0.289060
0.083437 -0.006329 0.124224 -0.236982 0.636356 0.734092
0.054470 0.057691 0.042248 -0.303138 0.936352 -0.177067
0.066255 -0.017792 -0.005658 0.012341 0.197475 -0.980230
0.124188 -0.005795 0.101904 -0.357753 -0.914953 -0.186746
0.085168 -0.007455 0.081047 0.038257 -0.591979 0.805045
0.135347 0.032628 0.032693 0.689723 0.465813 -0.554347
0.091968 -0.029004 -0.004620 -0.234745 -0.887886 -0.395668
0.044585 0.044342 0.066070 -0.258206 0.657417 0.707907
0.041769 0.051759 0.046106 -0.317496 0.903983 0.286377
0.129941 -0.020800 0.127019 -0.414882 0.361266 0.835081
0.143233 0.003787 0.036719 0.840456 -0.307401 -0.446250
0.122933 -0.028733 0.115032 -0.985594 -0.071035 -0.153490
0.069710 0.049246 -0.004813 -0.118211 0.411127 -0.903881
0.128892 0.012883 -0.005375 0.331339 0.305993 -0.892515
0.089766 0.052909 0.002471 0.514978 0.733332 0.443871
0.065075 0.049584 -0.000945 -0.284572 0.958221 0.028819
0.069505 0.045010 0.067321 0.065634 0.989445 0.129194
0.139318 -0.039008 0.132238 0.865550 0.253845 0.431725
0.057422 0.014119 0.091747 -0.038507 0.015999 0.999130
0.028213 0.038583 0.060632 -0.580440 0.718495 0.383217
0.075539 0.044032 0.067705 0.139175 0.966902 0.213849
0.056671 0.013919 -0.005655 0.013561 0.067013 -0.997660
0.095556 0.016255 -0.005925 0.323340 0.011586 -0.946212
0.023971 -0.004031 0.006517 -0.173801 -0.846951 -0.502462
0.079591 -0.018708 0.146879 0.682598 -0.460183 0.567708
0.109704 0.008502 0.098503 -0.971658 -0.164637 0.169633
0.106038 -0.017244 -0.006185 0.348876 -0.131206 -0.927939
0.129334 -0.051613 0.122134 0.951731 -0.306206 0.021123
0.065451 -0.018359 0.072544 -0.117274 -0.825177 0.552567
0.033463 0.002515 0.080489 -0.596012 -0.209973 0.775036
0.118087 0.025553 0.004322 0.520445 -0.429553 0.737984
0.101919 -0.006099 -0.005890 -0.508904 -0.016436 -0.860666
0.087973 -0.028053 -0.002325 -0.179961 -0.976956 0.114764
0.091311 -0.007816 0.116099 -0.204976 -0.532111 -0.821488
0.101536 0.044676 -0.003267 -0.273872 0.958800 -0.075483
0.135805 -0.021961 0.112300 0.917148 -0.071406 0.392097
0.019999 0.030669 0.005072 -0.317599 0.556726 -0.767585
0.061187 -0.031127 0.054043 -0.366014 -0.804742 0.467359
0.096396 -0.022652 0.006254 0.306207 -0.414587 0.856945
0.146125 -0.000362 0.049243 0.911202 -0.404517 -0.077949
0.118466 0.043351 0.062826 0.032681 0.923535 0.382119
0.134798 0.050509 0.098067 -0.156931 0.857578 0.489829
0.101588 -0.010741 -0.005850 -0.336070 0.199551 -0.920454
0.125019 -0.059437 0.133149 0.582256 -0.805497 -0.110233
0.045027 0.053692 0.030275 -0.464864 0.869963 -0.164515
0.054011 0.022205 -0.005224 0.035039 0.058511 -0.997672
0.051640 0.056750 0.039405 -0.222635 0.971667 0.079349
0.076318 0.018335 0.088682 0.267175 0.154872 0.951121
0.071051 0.042414 -0.003660 0.233558 -0.792677 -0.563129
0.063965 -0.018294 0.072328 -0.116718 -0.825137 0.552743
0.122814 -0.053187 0.132138 -0.960796 0.217228 0.172290
0.153366 0.012050 0.085937 0.960660 -0.253488 0.113476
0.082303 -0.027999 0.011576 0.280555 -0.905501 -0.318364
0.090124 0.045792 0.056936 -0.256264 0.941313 0.219679
0.123628 -0.017196 0.053390 0.220022 -0.966496 0.132196
0.052554 -0.030198 0.050574 -0.366167 -0.902511 0.226705
0.067429 -0.015341 -0.004102 0.105374 0.768671 -0.630905
0.066600 0.058924 0.043127 0.015894 0.989539 0.143384
0.124258 -0.011910 0.116785 -0.856196 0.268652 0.441311
0.120196 -0.016591 0.064561 0.240370 -0.940411 0.240520
0.086481 -0.030223 0.023544 0.639205 -0.720837 -0.267977
0.136454 -0.005446 0.117441 0.804337 0.303572 0.510769
0.141649 0.045466 0.071327 0.156306 0.449175 -0.879665
0.146087 0.002220 0.044361 0.877185 -0.246400 -0.412108
0.078607 -0.023329 -0.006238 -0.052778 -0.216135 -0.974936
0.131100 0.032622 0.029417 0.532916 0.454872 -0.713507
0.069113 -0.027394 0.005993 -0.012547 -0.784334 -0.620211
0.030729 0.007753 0.079537 -0.688806 -0.052518 0.723041
0.130590 -0.010503 0.122299 -0.290684 0.429504 0.855002
0.103999 -0.008225 0.084004 0.011442 -0.660220 0.750985
0.001808 0.019089 0.029456 -0.849528 0.377070 0.368945
0.149174 0.005521 0.093736 0.788295 -0.442532 0.427501
0.119717 0.044546 -0.005003 0.006518 0.148041 -0.988960
0.103072 -0.016569 0.034490 -0.035517 -0.959406 -0.279782
0.134551 -0.005243 0.119043 0.414795 0.430604 0.801577
0.022951 -0.008873 0.022978 -0.843363 -0.446309 -0.299243
0.070214 -0.021381 0.128963 -0.778119 -0.273668 -0.565364
0.096486 -0.006479 0.136522 0.551606 -0.019636 0.833874
0.063729 0.049080 0.000616 -0.289337 0.954763 0.068643
0.133725 -0.036487 0.111373 0.971532 -0.209622 -0.110378
0.107659 0.004191 0.126517 0.369198 0.541998 0.754938
0.070954 -0.018181 0.071782 0.283238 -0.658687 0.697071
0.151308 0.017143 0.097280 0.983113 -0.180712 -0.028836
0.125185 -0.040636 0.115414 -0.914382 -0.140360 -0.379743
0.026808 0.029320 0.071448 -0.732327 0.538602 0.416659
0.137956 -0.048746 0.137052 0.541167 -0.660182 -0.520862
0.046855 -0.027726 0.049968 -0.436867 -0.868377 0.234668
0.103198 -0.025752 -0.005645 0.581447 -0.585858 -0.564527
0.149717 0.047081 0.086160 0.723717 0.665015 0.184359
0.152019 0.019469 0.101215 0.977034 0.103069 -0.186495
0.087033 -0.006659 0.139936 -0.639939 0.767779 0.031517
0.103167 0.041814 0.021110 0.349017 0.925288 -0.148421
0.142344 0.001580 0.104325 0.806246 -0.560302 0.189812
0.127221 -0.003560 0.116210 -0.576233 0.378335 0.724444
0.118164 0.042568 0.006538 0.274265 0.435147 0.857570
0.116717 -0.003056 0.095565 -0.513345 -0.817794 0.260174
0.095021 -0.002530 0.112460 -0.347463 -0.272440 -0.897243
0.085660 0.045588 0.010774 0.177766 0.533689 0.826786
0.145017 0.051521 0.086769 0.662808 0.743513 -0.088736
0.046905 -0.012133 0.078755 -0.441846 -0.713802 0.543377
0.089448 -0.014641 0.125289 0.197929 -0.890470 -0.409741
0.130788 0.006462 0.023291 0.595869 -0.238115 -0.766969
0.107760 -0.017339 0.068462 -0.000026 -0.978020 0.208510
0.023283 0.020501 0.070115 -0.850477 0.149260 0.504391
0.134858 -0.027984 0.112731 0.934720 -0.143236 0.325242
0.086996 0.045383 0.032183 0.828607 0.481082 -0.286306
0.048511 -0.008092 -0.005475 -0.062159 -0.002095 -0.998064
0.113281 -0.020225 0.056250 0.214379 -0.972428 -0.091787
0.082133 -0.018857 -0.005733 0.052296 0.482420 -0.874377
0.149411 0.022850 0.056609 0.969631 0.243886 0.018325
0.089220 0.047169 0.049370 0.852571 0.517280 0.074459
0.054518 0.034758 0.084408 -0.090848 0.713863 0.694368
0.039679 0.045384 0.062606 -0.474219 0.723026 0.502345
0.047657 0.050076 0.011687 -0.547697 0.628522 -0.552258
0.040895 0.033602 0.081012 -0.311341 0.675662 0.668242
0.122472 -0.017085 0.038707 0.259325 -0.928893 -0.264403
0.042736 0.024998 0.086632 -0.372958 0.366372 0.852452
0.128160 0.011867 -0.005687 0.164664 0.164657 -0.972509
0.119272 -0.006044 0.085725 -0.234802 -0.960700 0.148067
0.073050 -0.024280 -0.004329 -0.171298 -0.893294 -0.415551
0.117705 -0.015692 0.070113 0.350797 -0.820759 0.450883
0.077760 0.039998 0.074803 0.255604 0.805817 0.534159
0.003073 0.025737 0.021614 -0.806935 0.590189 0.023089
0.128386 -0.003861 -0.005919 0.473591 -0.262597 -0.840687
0.122229 -0.007615 -0.005979 0.336657 -0.705600 -0.623531
0.083274 0.055495 0.000782 -0.132593 0.985942 0.101675
0.069844 -0.021762 -0.006077 -0.075941 -0.325170 -0.942602
0.144487 -0.000512 0.062328 0.883354 -0.422499 0.202930
0.139180 -0.028803 0.125696 0.935567 0.172087 0.308382
0.145097 0.005204 0.040555 0.884883 -0.365647 -0.288591
0.131761 -0.017085 0.105342 0.157944 -0.283930 -0.945747
0.152553 0.013938 0.091972 0.958808 -0.110747 0.261575
0.150260 0.019686 0.051646 0.971323 0.170468 -0.165747
0.035550 0.006685 0.083248 -0.598948 -0.118748 0.791934
0.080994 -0.014387 0.146300 -0.273449 0.386308 0.880904
0.006375 0.029304 0.022084 -0.638965 0.749565 0.172848
0.147381 0.008114 0.064468 0.932522 -0.234890 0.274281
0.046240 0.051777 0.019078 -0.578051 0.807796 -0.115423
0.113676 -0.006745 0.004900 0.314411 -0.824272 0.470872
0.074224 -0.029770 0.056139 0.072341 -0.485068 0.871479
0.133346 -0.052453 0.136839 0.652315 -0.562949 -0.507517
0.129428 0.009002 0.115728 -0.088501 -0.107258 0.990284
0.113672 0.040251 0.068850 -0.039153 0.847816 0.528844
0.116225 -0.004827 0.086981 -0.281631 -0.928368 0.242523
0.112880 0.037359 0.009306 0.311383 0.155239 0.937519
0.084065 -0.010838 0.144393 0.139965 0.411708 0.900503
0.033476 -0.006309 0.075176 -0.541683 -0.484036 0.687232
0.155086 0.020291 0.082565 0.999673 0.023766 0.009394
0.091139 -0.009034 0.139982 0.565152 -0.045152 0.823750
0.115710 0.023941 -0.005914 0.039808 0.045247 -0.998182
0.010027 0.031567 0.019594 -0.494927 0.868575 -0.024999
0.120129 0.042029 0.086977 -0.435901 0.872701 0.219963
0.013282 0.033105 0.015409 -0.458255 0.887690 -0.044806
0.023449 0.000614 0.000393 -0.212237 -0.620877 -0.754631
0.114558 -0.008996 0.081544 0.231279 -0.667920 0.707385
